ply
format ascii 1.0
element vertex 751
property float x
property float y
property float z
end_header
0.262160748243331909 0.119179464876651764 -0.0209969896823167801
0.266459763050079346 0.119712397456169128 -0.0275444425642490387
0.269111424684524536 0.119651518762111664 -0.0273438710719347
0.26441606879234314 0.119771793484687805 -0.0279026105999946594
0.267162889242172241 0.119739577174186707 -0.0281980335712432861
0.25719115138053894 0.11995234340429306 -0.0286710038781166077
0.260484904050827026 0.119876697659492493 -0.0286493469029664993
0.256639778614044189 0.120360396802425385 -0.0325925052165985107
0.251259803771972656 0.120636880397796631 -0.0336913466453552246
0.23268572986125946 0.11890798807144165 0.0829376131296157837
0.236790254712104797 0.118588417768478394 0.0890954211354255676
0.233145266771316528 0.118780970573425293 0.0908262953162193298
0.234527111053466797 0.118763208389282227 0.0855387523770332336
0.232834860682487488 0.118811875581741333 0.0902479439973831177
0.247308790683746338 0.117913201451301575 0.0926168560981750488
0.230926409363746643 0.119005851447582245 0.083745419979095459
0.236489847302436829 0.118635185062885284 0.0875139683485031128
0.245663970708847046 0.118035592138767242 0.0902523770928382874
0.234455659985542297 0.118718184530735016 0.0897503197193145752
0.246182247996330261 0.117995291948318481 0.0916834399104118347
0.242610320448875427 0.11817362904548645 0.0935697704553604126
0.238901197910308838 0.118490733206272125 0.0867006778717041016
0.244475767016410828 0.118117615580558777 0.0901252329349517822
0.247670561075210571 0.117891609668731689 0.0985799878835678101
0.246343508362770081 0.117978103458881378 0.10028308629989624
0.249771326780319214 0.11777053028345108 0.0986595079302787781
0.246870458126068115 0.117965638637542725 0.104092217981815338
0.250684231519699097 0.117720939218997955 0.101392962038516998
0.245354637503623962 0.118074290454387665 0.107199124991893768
0.244672462344169617 0.118102140724658966 0.104433655738830566
0.249423757195472717 0.117798037827014923 0.100972950458526611
0.245071932673454285 0.118090361356735229 0.10650353878736496
0.247752144932746887 0.117915399372577667 0.104891806840896606
0.260527849197387695 0.117094382643699646 0.107865564525127411
0.268188208341598511 0.116593040525913239 0.113930046558380127
0.261948704719543457 0.116984866559505463 0.106458544731140137
0.259948492050170898 0.117123529314994812 0.10538288950920105
0.263389110565185547 0.116859696805477142 0.104614712297916412
0.270898818969726562 0.11639636754989624 0.112631916999816895
0.266654640436172485 0.116682596504688263 0.111403979361057281
0.258747130632400513 0.117171920835971832 0.100656881928443909
0.255707621574401855 0.117381446063518524 0.0999900326132774353
0.270712792873382568 0.116415880620479584 0.113000445067882538
0.258904755115509033 0.11718914657831192 0.103813283145427704
0.274743199348449707 0.116175621747970581 0.103689126670360565
0.270087301731109619 0.116478629410266876 0.10022350400686264
0.265378504991531372 0.116783678531646729 0.0967776402831077576
0.265152692794799805 0.116769999265670776 0.101099394261837006
0.275528788566589355 0.116132266819477081 0.103191420435905457
0.269813448190689087 0.116489425301551819 0.0996340513229370117
0.260944932699203491 0.117057830095291138 0.0955850556492805481
0.27379763126373291 0.116250671446323395 0.0993523523211479187
0.27236253023147583 0.116319656372070312 0.10269879549741745
0.271022558212280273 0.116413511335849762 0.101869933307170868
0.257431924343109131 0.117267124354839325 0.0962856709957122803
0.260279655456542969 0.117161594331264496 0.0859545990824699402
0.253509938716888428 0.117665454745292664 0.0754780247807502747
0.256043285131454468 0.117403864860534668 0.088458523154258728
0.253104180097579956 0.117655426263809204 0.0797751322388648987
0.254301160573959351 0.117591798305511475 0.0785845965147018433
0.260485947132110596 0.11719173938035965 0.0821158885955810547
0.259923368692398071 0.11725945770740509 0.077213287353515625
0.263934075832366943 0.116983585059642792 0.080834411084651947
0.26334729790687561 0.117035850882530212 0.0806082561612129211
0.253917425870895386 0.117637559771537781 0.076062127947807312
0.254922211170196533 0.117598049342632294 0.0728380605578422546
0.255631625652313232 0.117446437478065491 0.087511800229549408
0.252562344074249268 0.117709703743457794 0.076928555965423584
0.256772071123123169 0.11736992746591568 0.0873902216553688049
0.255339771509170532 0.117551222443580627 0.075770549476146698
0.261872977018356323 0.117123536765575409 0.0798463374376296997
0.238099917769432068 0.118701167404651642 0.0747126713395118713
0.238503441214561462 0.118762612342834473 0.0654762610793113708
0.245031028985977173 0.118157684803009033 0.0845482423901557922
0.23970089852809906 0.118569925427436829 0.0778689682483673096
0.247906029224395752 0.117925539612770081 0.0887852087616920471
0.241005659103393555 0.118585214018821716 0.0667136982083320618
0.240493044257164001 0.118527702987194061 0.0760858058929443359
0.236673757433891296 0.118803486227989197 0.0729810819029808044
0.242160767316818237 0.118477970361709595 0.0709667131304740906
0.244907930493354797 0.118203900754451752 0.0794598832726478577
0.246132925152778625 0.118072539567947388 0.0850002393126487732
0.238968804478645325 0.118677809834480286 0.0716349631547927856
0.235958829522132874 0.118863977491855621 0.0718172192573547363
0.242893636226654053 0.118342757225036621 0.079343453049659729
0.238550156354904175 0.118786357343196869 0.0624088011682033539
0.23599599301815033 0.119457319378852844 0.0358525291085243225
0.240059033036231995 0.119186572730541229 0.036107964813709259
0.234588071703910828 0.119585081934928894 0.0349116064608097076
0.235989838838577271 0.119497194886207581 0.0346614718437194824
0.23209632933139801 0.119646862149238586 0.0384306386113166809
0.236378222703933716 0.119388572871685028 0.0378033481538295746
0.238639295101165771 0.119228996336460114 0.0378623493015766144
0.240602433681488037 0.11897529661655426 0.04251847043633461
0.229536175727844238 0.120020382106304169 0.0309796091169118881
0.23713354766368866 0.119378790259361267 0.0360487401485443115
0.248643487691879272 0.118435248732566833 0.0426727160811424255
0.234762132167816162 0.119451843202114105 0.0393336191773414612
0.234105780720710754 0.119704216718673706 0.0318548306822776794
0.23083902895450592 0.119825564324855804 0.0352242141962051392
0.233040571212768555 0.119716204702854156 0.0342940986156463623
0.23369210958480835 0.119688563048839569 0.0336720496416091919
0.248786643147468567 0.118315979838371277 0.0480134636163711548
0.247059285640716553 0.118362657725811005 0.0529811382293701172
0.249066814780235291 0.118177853524684906 0.0562631711363792419
0.24766385555267334 0.118262797594070435 0.0571023821830749512
0.249840930104255676 0.118248000741004944 0.0484865084290504456
0.251149147748947144 0.118162743747234344 0.0487035661935806274
0.249019742012023926 0.118151836097240448 0.0587788000702857971
0.24362771213054657 0.118463583290576935 0.0613642148673534393
0.244824722409248352 0.118400387465953827 0.0608215145766735077
0.240982577204704285 0.118639715015888214 0.061696518212556839
0.251285642385482788 0.118013657629489899 0.0578007772564888
0.24662289023399353 0.118335075676441193 0.0568425841629505157
0.246800139546394348 0.118244573473930359 0.0620770752429962158
0.244802176952362061 0.118406206369400024 0.0604110509157180786
0.250130146741867065 0.118190407752990723 0.051263175904750824
0.243970170617103577 0.118446245789527893 0.0609659440815448761
0.250579088926315308 0.118147142231464386 0.0522566735744476318
0.262146145105361938 0.117385976016521454 0.059679374098777771
0.259810775518417358 0.11752135306596756 0.0590497478842735291
0.255096405744552612 0.117910593748092651 0.050531093031167984
0.2694130539894104 0.116867393255233765 0.0688389912247657776
0.259901881217956543 0.117491349577903748 0.0612549334764480591
0.25733986496925354 0.117746837437152863 0.0533262826502323151
0.262993067502975464 0.11722063273191452 0.0679055154323577881
0.260959267616271973 0.117504619061946869 0.0565733499825000763
0.262314587831497192 0.117318026721477509 0.0634238943457603455
0.259142041206359863 0.117536179721355438 0.061015058308839798
0.257698744535446167 0.117702074348926544 0.0551522336900234222
0.270829826593399048 0.116693630814552307 0.0748655796051025391
0.261746883392333984 0.117352880537509918 0.0635056495666503906
0.264446079730987549 0.117205977439880371 0.0633082315325737
0.269062578678131104 0.116831831634044647 0.0717168822884559631
0.262394934892654419 0.117251031100749969 0.0686881989240646362
0.269585222005844116 0.11680237203836441 0.0715267211198806763
0.265355378389358521 0.116957686841487885 0.0771474838256835938
0.259347319602966309 0.117505826056003571 0.0620458424091339111
0.258746474981307983 0.11781686544418335 0.0455993302166461945
0.261176377534866333 0.117704294621944427 0.0453330427408218384
0.275747865438461304 0.116729974746704102 0.0600708797574043274
0.265361875295639038 0.117354877293109894 0.0534709244966506958
0.274980276823043823 0.116829201579093933 0.0567648597061634064
0.269238531589508057 0.117186926305294037 0.0524353273212909698
0.25601804256439209 0.117928072810173035 0.0467360727488994598
0.26205018162727356 0.117599502205848694 0.0487793125212192535
0.266922116279602051 0.117276847362518311 0.0540233850479125977
0.257568478584289551 0.117836378514766693 0.0478734299540519714
0.271640032529830933 0.117103889584541321 0.0497092641890048981
0.271999657154083252 0.11710483580827713 0.0488197542726993561
0.271283239126205444 0.116994805634021759 0.0580393485724925995
0.268007069826126099 0.11727587878704071 0.050289984792470932
0.274053722620010376 0.116960801184177399 0.0512408614158630371
0.263054549694061279 0.11760333925485611 0.0455875135958194733
0.262202948331832886 0.117560893297195435 0.0507314577698707581
0.273955553770065308 0.116946205496788025 0.0527101531624794006
0.263357847929000854 0.117744691669940948 0.0287305228412151337
0.257143646478652954 0.118098840117454529 0.0261800587177276611
0.256530851125717163 0.118058837950229645 0.032907433807849884
0.251888900995254517 0.118291363120079041 0.0342884287238121033
0.254382193088531494 0.118174873292446136 0.033166978508234024
0.256280213594436646 0.118113860487937927 0.0294273868203163147
0.254100024700164795 0.118242241442203522 0.0282756537199020386
0.259218990802764893 0.117911666631698608 0.0333458259701728821
0.25629696249961853 0.118197150528430939 0.0224665924906730652
0.253801792860031128 0.118271194398403168 0.0271427296102046967
0.252374321222305298 0.118407249450683594 0.0226104948669672012
0.252703875303268433 0.118367657065391541 0.023896997794508934
0.257653266191482544 0.118072815239429474 0.0264086704701185226
0.258171826601028442 0.118066906929016113 0.0250031352043151855
0.260667413473129272 0.117871962487697601 0.0296882279217243195
0.256383746862411499 0.118052467703819275 0.0346179120242595673
0.263819396495819092 0.117734514176845551 0.0265814606100320816
0.255420923233032227 0.118134595453739166 0.0325501300394535065
0.240859642624855042 0.119407102465629578 0.0172487106174230576
0.238736778497695923 0.119649901986122131 0.0116658126935362816
0.237425670027732849 0.119734436273574829 0.0156421344727277756
0.24206186830997467 0.119211561977863312 0.0261616464704275131
0.236546888947486877 0.119742743670940399 0.0216939430683851242
0.244650781154632568 0.118944257497787476 0.0306877978146076202
0.240354478359222412 0.119497321546077728 0.0132836028933525085
0.243705779314041138 0.119118452072143555 0.0217421259731054306
0.244659170508384705 0.118975743651390076 0.0269825905561447144
0.250269651412963867 0.118357084691524506 0.0397577770054340363
0.240009546279907227 0.11944580078125 0.0218585357069969177
0.236459612846374512 0.119793079793453217 0.016625991091132164
0.248915746808052063 0.118509881198406219 0.0366845168173313141
0.245259016752243042 0.118867896497249603 0.0329816006124019623
0.249477848410606384 0.118422180414199829 0.0405488386750221252
0.238615661859512329 0.119617179036140442 0.0155308656394481659
0.311186045408248901 0.119501709938049316 -0.0169242732226848602
0.309559494256973267 0.119510971009731293 -0.0174293685704469681
0.308785915374755859 0.119932785630226135 -0.0204770732671022415
0.309496372938156128 0.119893774390220642 -0.0200700815767049789
0.31229361891746521 0.119711332023143768 -0.0180946290493011475
0.297089904546737671 0.119870379567146301 -0.023120807483792305
0.294094085693359375 0.12019173800945282 -0.0253745857626199722
0.299699842929840088 0.120403759181499481 -0.0251395422965288162
0.280233770608901978 0.11990821361541748 -0.0273938626050949097
0.281639814376831055 0.119887374341487885 -0.0269235223531723022
0.283118396997451782 0.119438998401165009 -0.0227893386036157608
0.290416538715362549 0.119708016514778137 -0.0234048981219530106
0.2812175452709198 0.11923825740814209 -0.0213334783911705017
0.282995671033859253 0.119066305458545685 -0.0191792473196983337
0.28663182258605957 0.119406700134277344 -0.0214491803199052811
0.289687573909759521 0.119789630174636841 -0.0242545139044523239
0.302676767110824585 0.118866793811321259 -0.0131993656978011131
0.303020358085632324 0.118722811341285706 -0.0117496922612190247
0.298091888427734375 0.119451940059661865 -0.0197560135275125504
0.300933748483657837 0.118973530828952789 -0.0145184444263577461
0.298036277294158936 0.119379311800003052 -0.0189063623547554016
0.293585240840911865 0.119589917361736298 -0.0216649007052183151
0.295002877712249756 0.119476556777954102 -0.020319472998380661
0.289621651172637939 0.121578142046928406 -0.029413292184472084
0.306989282369613647 0.12222251296043396 -0.0233366861939430237
0.299354285001754761 0.122245267033576965 -0.0235384814441204071
0.307064145803451538 0.122206613421440125 -0.0233057364821434021
0.30348670482635498 0.122159391641616821 -0.017052777111530304
0.310203254222869873 0.122171662747859955 -0.0154998991638422012
0.315340548753738403 0.122196018695831299 -0.0145460162311792374
0.307051390409469604 0.12219759076833725 -0.0176321398466825485
0.313487231731414795 0.12216523289680481 -0.0134317334741353989
0.31156960129737854 0.122146956622600555 -0.0132777448743581772
0.312640994787216187 0.122183248400688171 -0.0145855331793427467
0.298495024442672729 0.122299686074256897 -0.0142111694440245628
0.299694716930389404 0.122277595102787018 -0.0137706277891993523
0.2916221022605896 0.122224748134613037 -0.0232935696840286255
0.291729718446731567 0.122388914227485657 -0.0172639433294534683
0.300289303064346313 0.122249983251094818 -0.0146305272355675697
0.294420093297958374 0.122320577502250671 -0.0176694281399250031
0.285429298877716064 0.12224937230348587 -0.0245558731257915497
0.286539316177368164 0.122266203165054321 -0.024060618132352829
0.277027726173400879 0.122277140617370605 -0.0258240886032581329
0.286887139081954956 0.122263498604297638 -0.024164518341422081
0.284171044826507568 0.122216954827308655 -0.0259501207619905472
0.286189049482345581 0.122117094695568085 -0.0263798478990793228
0.278051882982254028 0.122057817876338959 -0.0285263378173112869
0.288787931203842163 0.122135363519191742 -0.0256813354790210724
0.278559476137161255 0.122035227715969086 -0.0286117549985647202
0.31410554051399231 0.117048189043998718 0.0124614089727401733
0.315640896558761597 0.117145568132400513 0.010782991535961628
0.305845141410827637 0.117589190602302551 0.0041547105647623539
0.318299859762191772 0.116947434842586517 0.0137583548203110695
0.302739620208740234 0.117644980549812317 0.00338211073540151119
0.312708556652069092 0.117538213729858398 0.00445985328406095505
0.297898173332214355 0.117810137569904327 0.000927921559195965528
0.310868680477142334 0.117332153022289276 0.00795827433466911316
0.306368559598922729 0.117448121309280396 0.00631419476121664047
0.315971672534942627 0.11707257479429245 0.0118917673826217651
0.313598573207855225 0.117549687623977661 0.00426363386213779449
0.304477483034133911 0.11750299483537674 0.00558122061192989349
0.302504241466522217 0.117550358176231384 0.00503818131983280182
0.306491941213607788 0.11739031970500946 0.007305885199457407
0.295987069606781006 0.118404597043991089 -0.00795294716954231262
0.294189125299453735 0.118740394711494446 -0.0130287045612931252
0.293542712926864624 0.118296593427658081 -0.00618533557280898094
0.291284531354904175 0.118655785918235779 -0.0117865260690450668
0.292650192975997925 0.118115410208702087 -0.0034396778792142868
0.295080989599227905 0.118174836039543152 -0.00450067082419991493
0.295719385147094727 0.118160560727119446 -0.0043141939677298069
0.303995788097381592 0.118465572595596313 -0.00877646263688802719
0.301694750785827637 0.118493072688579559 -0.00916101690381765366
0.292461395263671875 0.118394456803798676 -0.0077635045163333416
0.280163496732711792 0.118865489959716797 -0.0167638193815946579
0.278190851211547852 0.118699416518211365 -0.0148806227371096611
0.277376860380172729 0.119004622101783752 -0.01930193230509758
0.278665542602539062 0.118977159261703491 -0.0186028927564620972
0.276853948831558228 0.119066618382930756 -0.0203383024781942368
0.27892613410949707 0.118941806256771088 -0.0180932637304067612
0.281337946653366089 0.118622578680515289 -0.0130262281745672226
0.27593839168548584 0.118827633559703827 -0.0172320008277893066
0.26862683892250061 0.118507847189903259 -0.0103095648810267448
0.280421525239944458 0.1181659996509552 -0.00411678757518529892
0.272037476301193237 0.118487752974033356 -0.0109019083902239799
0.266275703907012939 0.118609331548213959 -0.0130197042599320412
0.273354142904281616 0.118280209600925446 -0.0053371046669781208
0.273025095462799072 0.118317142128944397 -0.00611733086407184601
0.275272756814956665 0.118249885737895966 -0.00495896628126502037
0.271125257015228271 0.118521235883235931 -0.0113784754648804665
0.26786234974861145 0.118606254458427429 -0.0131987482309341431
0.267781883478164673 0.118599735200405121 -0.0129476897418498993
0.28740355372428894 0.117506183683872223 0.0127538479864597321
0.290389776229858398 0.11731729656457901 0.0165699310600757599
0.289367765188217163 0.117290012538433075 0.0176238249987363815
0.282147228717803955 0.117681607604026794 0.009577958844602108
0.28064003586769104 0.117695644497871399 0.00992094073444604874
0.291539758443832397 0.117230936884880066 0.0185258500277996063
0.291222363710403442 0.117701835930347443 0.00584393925964832306
0.288220077753067017 0.117860689759254456 0.00272150780074298382
0.289498448371887207 0.117346636950969696 0.0161954574286937714
0.289392977952957153 0.1175837442278862 0.00972294900566339493
0.284487098455429077 0.117768004536628723 0.00625585345551371574
0.286359786987304688 0.11768370121717453 0.00824185553938150406
0.291498512029647827 0.117521762847900391 0.01068839430809021
0.290781557559967041 0.117328815162181854 0.0160581786185503006
0.281906694173812866 0.117579124867916107 0.0125982649624347687
0.303352385759353638 0.116746775805950165 0.0236076768487691879
0.310385733842849731 0.116528786718845367 0.0246124640107154846
0.303763359785079956 0.116920441389083862 0.0186948403716087341
0.306573778390884399 0.116574294865131378 0.0260323900729417801
0.306938648223876953 0.116774000227451324 0.0204166993498802185
0.305362701416015625 0.116907007992267609 0.0179081466048955917
0.304974973201751709 0.11679936945438385 0.0212057251483201981
0.307223647832870483 0.116846568882465363 0.0180512089282274246
0.298043131828308105 0.117493271827697754 0.00716691650450229645
0.302431106567382812 0.116936922073364258 0.0190163832157850266
0.294403284788131714 0.117708727717399597 0.00373602216131985188
0.307557880878448486 0.116674162447452545 0.0227469317615032196
0.306901693344116211 0.116722516715526581 0.0219918377697467804
0.305414766073226929 0.116682931780815125 0.0238101594150066376
0.30614820122718811 0.11648261547088623 0.0288846641778945923
0.295882582664489746 0.117564991116523743 0.00639620143920183182
0.302027285099029541 0.117011189460754395 0.0173510834574699402
0.271489381790161133 0.122785918414592743 -0.0132550746202468872
0.269391924142837524 0.122703768312931061 -0.0168356802314519882
0.265648752450942993 0.122869096696376801 -0.0159254036843776703
0.280606478452682495 0.122651614248752594 -0.00917652994394302368
0.267206281423568726 0.122887887060642242 -0.0143287861719727516
0.279124706983566284 0.122665703296661377 -0.0100410571321845055
0.282816648483276367 0.122640781104564667 -0.007691927719861269
0.278398007154464722 0.122606657445430756 -0.0122088780626654625
0.271537482738494873 0.122819580137729645 -0.0125573780387639999
0.291071206331253052 0.122490525245666504 -0.0120856352150440216
0.289801120758056641 0.122442670166492462 -0.0159432739019393921
0.286473482847213745 0.122514396905899048 -0.0114834951236844063
0.283041507005691528 0.122489660978317261 -0.0142259858548641205
0.287329703569412231 0.122448712587356567 -0.0152834868058562279
0.289674192667007446 0.122558817267417908 -0.00580463511869311333
0.291506439447402954 0.122511304914951324 -0.0099782068282365799
0.291147679090499878 0.122446849942207336 -0.0153421489521861076
0.284534484148025513 0.122443303465843201 -0.0178906656801700592
0.30046805739402771 0.122393779456615448 -0.00531460857018828392
0.29922136664390564 0.122449867427349091 -0.000833030673675239086
0.301189661026000977 0.122374989092350006 -0.00311445910483598709
0.306515544652938843 0.12225697934627533 -0.00527700595557689667
0.307600855827331543 0.122222542762756348 -0.00411502411589026451
0.306131660938262939 0.122267454862594604 -0.00214786874130368233
0.300405919551849365 0.12240050733089447 -0.00293449219316244125
0.308192998170852661 0.122224301099777222 -5.59892505407333374e-05
0.297587394714355469 0.122473061084747314 -0.00249524717219173908
0.307672709226608276 0.122236959636211395 -0.00027962776948697865
0.317085027694702148 0.121877714991569519 0.0145840980112552643
0.318422287702560425 0.121823996305465698 0.0169387906789779663
0.31453976035118103 0.121916063129901886 0.0204416010528802872
0.308076292276382446 0.122104644775390625 0.0143882641568779945
0.31673315167427063 0.121854327619075775 0.0166403148323297501
0.316899716854095459 0.121859408915042877 0.0179159920662641525
0.295540004968643188 0.122502505779266357 0.00145354762207716703
0.310919106006622314 0.122013285756111145 0.0193474162369966507
0.313327759504318237 0.121976226568222046 0.0144218653440475464
0.302843570709228516 0.12228769063949585 0.00660244189202785492
0.313135266304016113 0.121965140104293823 0.0176258739084005356
0.309070885181427002 0.122087255120277405 0.0141249578446149826
0.310187220573425293 0.122039847075939178 0.0172197725623846054
0.299130737781524658 0.122387200593948364 0.00557060260325670242
0.310381621122360229 0.12205563485622406 0.0138408439233899117
0.31139838695526123 0.122028537094593048 0.0125469667837023735
0.301487833261489868 0.122442111372947693 0.0242590215057134628
0.294516056776046753 0.122749976813793182 0.0212359745055437088
0.293935894966125488 0.122715964913368225 0.0164309218525886536
0.294715940952301025 0.12264598160982132 0.0132849542424082756
0.292767733335494995 0.122682571411132812 0.00839516520500183105
0.296895712614059448 0.122666493058204651 0.023552529513835907
0.296335279941558838 0.122618727385997772 0.0181337650865316391
0.298596650362014771 0.122520230710506439 0.0191659219563007355
0.298325985670089722 0.122556693851947784 0.0210684500634670258
0.30310705304145813 0.122374191880226135 0.025710398331284523
0.296653777360916138 0.122520633041858673 0.0104101598262786865
0.29542115330696106 0.122719034552574158 0.0216929148882627487
0.295545607805252075 0.122544780373573303 0.00793274771422147751
0.294563889503479004 0.122767820954322815 0.0230918619781732559
0.295029908418655396 0.122690498828887939 0.018399316817522049
0.297574609518051147 0.122573569416999817 0.0194065794348716736
0.27654796838760376 0.123041369020938873 -0.00321852252818644047
0.279727160930633545 0.12310047447681427 0.00572383496910333633
0.27688753604888916 0.123192302882671356 0.00616464437916874886
0.272096455097198486 0.123166278004646301 -0.00334872794337570667
0.286510318517684937 0.122772708535194397 -0.00111977360211312771
0.27775922417640686 0.123042300343513489 -0.000665945757646113634
0.277531892061233521 0.123193532228469849 0.00746391667053103447
0.289554238319396973 0.122709959745407104 -2.13636521948501468e-05
0.275185942649841309 0.1231723353266716 0.00208626710809767246
0.287152111530303955 0.122803941369056702 0.001649459358304739
0.274556577205657959 0.123105734586715698 -0.00295628746971487999
0.276464939117431641 0.123039387166500092 -0.00351829477585852146
0.279045194387435913 0.123210571706295013 0.0108303586021065712
0.287635892629623413 0.122789233922958374 0.00180806231219321489
0.277875751256942749 0.123161561787128448 0.00671647954732179642
0.283350884914398193 0.124011769890785217 0.138004958629608154
0.28473961353302002 0.124358378350734711 0.138248845934867859
0.284238100051879883 0.126092121005058289 0.137681543827056885
0.290169954299926758 0.126006439328193665 0.138266414403915405
0.315445125102996826 0.125364869832992554 0.142384976148605347
0.308066636323928833 0.126022309064865112 0.140752077102661133
0.305231481790542603 0.123717315495014191 0.141414523124694824
0.311274677515029907 0.123099081218242645 0.142626479268074036
0.302498191595077515 0.121522560715675354 0.140367761254310608
0.301421076059341431 0.121098361909389496 0.140014678239822388
0.277653783559799194 0.12109944224357605 0.136035189032554626
0.280227303504943848 0.121217548847198486 0.136412188410758972
0.303889185190200806 0.119274064898490906 0.138908118009567261
0.296133100986480713 0.118167325854301453 0.13641105592250824
0.307880789041519165 0.120105117559432983 0.140410691499710083
0.311595827341079712 0.117945313453674316 0.138239726424217224
0.318680942058563232 0.117890313267707825 0.139116868376731873
0.317299336194992065 0.117307774722576141 0.137930393218994141
0.30836331844329834 0.117766290903091431 0.137467041611671448
0.311783522367477417 0.118241667747497559 0.138771757483482361
0.304723411798477173 0.116346150636672974 0.133724093437194824
0.30167078971862793 0.11667180061340332 0.133991867303848267
0.302234560251235962 0.116680949926376343 0.134100869297981262
0.300236284732818604 0.116961978375911713 0.134450376033782959
0.270136475563049316 0.118978805840015411 0.132683068513870239
0.278437286615371704 0.118835233151912689 0.134248495101928711
0.269619286060333252 0.118646830320358276 0.131801605224609375
0.288326025009155273 0.119142711162567139 0.136051267385482788
0.288654983043670654 0.119988299906253815 0.136876821517944336
0.287745893001556396 0.128752961754798889 0.136226281523704529
0.284110039472579956 0.128976866602897644 0.135893583297729492
0.287458837032318115 0.129026353359222412 0.134273961186408997
0.291461914777755737 0.128653302788734436 0.135461911559104919
0.300989717245101929 0.128086298704147339 0.135899320244789124
0.309472471475601196 0.12773992121219635 0.135900363326072693
0.310816913843154907 0.127634570002555847 0.135177776217460632
0.320791780948638916 0.127307310700416565 0.140822857618331909
0.321196645498275757 0.127416700124740601 0.139928027987480164
0.297070771455764771 0.127350792288780212 0.138161763548851013
0.293778866529464722 0.127027273178100586 0.13799247145652771
0.284306138753890991 0.127986609935760498 0.136493608355522156
0.290085703134536743 0.12836359441280365 0.136557206511497498
0.324083089828491211 0.114958703517913818 0.0625053867697715759
0.324988365173339844 0.11490815132856369 0.063675418496131897
0.302975565195083618 0.115992896258831024 0.0487178191542625427
0.319162547588348389 0.115176454186439514 0.0602583698928356171
0.307584762573242188 0.115842483937740326 0.048767533153295517
0.307379603385925293 0.115839555859565735 0.0491075776517391205
0.311135441064834595 0.115685619413852692 0.0500541850924491882
0.314251571893692017 0.115617327392101288 0.0487894564867019653
0.298878490924835205 0.116122402250766754 0.0491034016013145447
0.312117606401443481 0.1154932901263237 0.0570226125419139862
0.308416873216629028 0.115797266364097595 0.0494805239140987396
0.302705585956573486 0.1159563809633255 0.0504509396851062775
0.324361562728881836 0.114983431994915009 0.0611212477087974548
0.305907011032104492 0.115899078547954559 0.0485776849091053009
0.297829777002334595 0.116157017648220062 0.0490719862282276154
0.318213760852813721 0.115321166813373566 0.0552905090153217316
0.296620219945907593 0.116224966943264008 0.0481634065508842468
0.298419415950775146 0.116407588124275208 0.0395594723522663116
0.293572038412094116 0.116663411259651184 0.0358450673520565033
0.294372528791427612 0.116412244737148285 0.0438706427812576294
0.301556318998336792 0.116557233035564423 0.0303976163268089294
0.294437944889068604 0.116537883877754211 0.0394001118838787079
0.298555076122283936 0.116655297577381134 0.0305843297392129898
0.300308138132095337 0.116602592170238495 0.0305687878280878067
0.293906271457672119 0.116512641310691833 0.0407743640244007111
0.296719640493392944 0.116360358893871307 0.0433869324624538422
0.293563723564147949 0.116941578686237335 0.0260338671505451202
0.296314120292663574 0.116404272615909576 0.0422135964035987854
0.296875238418579102 0.116623170673847198 0.0338365733623504639
0.30147966742515564 0.116427183151245117 0.0353100299835205078
0.293467670679092407 0.116872318089008331 0.0285809505730867386
0.299975663423538208 0.116394385695457458 0.0384278446435928345
0.293125778436660767 0.116902284324169159 0.0279905125498771667
0.303751587867736816 0.116457261145114899 0.032033190131187439
0.292402952909469604 0.116417169570922852 0.0451004505157470703
0.282529950141906738 0.117097899317741394 0.0284627377986907959
0.278701245784759521 0.117358379065990448 0.0219793617725372314
0.283501982688903809 0.117192506790161133 0.0247926395386457443
0.280702888965606689 0.117165043950080872 0.0273035280406475067
0.286766499280929565 0.116912171244621277 0.0322247259318828583
0.283044099807739258 0.117185533046722412 0.024955306202173233
0.282381206750869751 0.117293275892734528 0.0215658452361822128
0.28511345386505127 0.117085844278335571 0.0269957762211561203
0.284376353025436401 0.116892240941524506 0.0341890491545200348
0.28509223461151123 0.116983652114868164 0.0306747779250144958
0.276442050933837891 0.117500737309455872 0.0186370369046926498
0.285685122013092041 0.116921097040176392 0.0325847454369068146
0.276122480630874634 0.11758885532617569 0.0157637931406497955
0.278084069490432739 0.117330536246299744 0.0232522580772638321
0.286379337310791016 0.116786964237689972 0.0364833362400531769
0.284477978944778442 0.116956733167171478 0.032026238739490509
0.279387056827545166 0.117440015077590942 0.0188151244074106216
0.278338909149169922 0.116987273097038269 0.0412338003516197205
0.269811093807220459 0.117450416088104248 0.0307216960936784744
0.268667548894882202 0.117407329380512238 0.0357031263411045074
0.274114638566970825 0.117134310305118561 0.0414230301976203918
0.275340765714645386 0.117186747491359711 0.0347292460501194
0.272026240825653076 0.117226704955101013 0.0399775244295597076
0.272466748952865601 0.117258429527282715 0.0370177701115608215
0.273380458354949951 0.11709991842508316 0.0450155660510063171
0.287847548723220825 0.116598896682262421 0.0441331975162029266
0.277116656303405762 0.117071807384490967 0.0377897918224334717
0.271333903074264526 0.117354229092597961 0.0333910398185253143
0.278641104698181152 0.11698402464389801 0.0406267121434211731
0.279668807983398438 0.116977930068969727 0.0382018201053142548
0.283254891633987427 0.116756126284599304 0.0442768558859825134
0.27625003457069397 0.117141172289848328 0.0358694270253181458
0.267759054899215698 0.117500200867652893 0.0325337015092372894
0.28702092170715332 0.116599030792713165 0.0457241907715797424
0.274203658103942871 0.117124982178211212 0.0417244397103786469
0.279362201690673828 0.11693071573972702 0.0419668257236480713
0.286507189273834229 0.11665700376033783 0.0433636456727981567
0.291772067546844482 0.11606297641992569 0.063062228262424469
0.288140863180160522 0.116074129939079285 0.0682425722479820251
0.283290565013885498 0.116394110023975372 0.0624920614063739777
0.288083523511886597 0.11615445464849472 0.0652342736721038818
0.292183250188827515 0.116048388183116913 0.0626958757638931274
0.284236341714859009 0.116390347480773926 0.060366559773683548
0.285335451364517212 0.116197302937507629 0.0673362463712692261
0.291639864444732666 0.116306468844413757 0.052306249737739563
0.291369140148162842 0.116233505308628082 0.055937688797712326
0.288301736116409302 0.116227969527244568 0.0612942390143871307
0.291807025671005249 0.115868709981441498 0.071598835289478302
0.293839484453201294 0.116252198815345764 0.0514728017151355743
0.294343352317810059 0.115976251661777496 0.062401261180639267
0.290964573621749878 0.1161784827709198 0.0588623061776161194
0.291161924600601196 0.115898780524730682 0.0714100748300552368
0.292895227670669556 0.115950226783752441 0.0663860887289047241
0.2864571213722229 0.116139188408851624 0.0682300254702568054
0.293468892574310303 0.115905195474624634 0.0671815276145935059
0.292192965745925903 0.115979626774787903 0.0658873170614242554
0.289772212505340576 0.115994296967983246 0.0693475157022476196
0.290537804365158081 0.116037353873252869 0.0660157129168510437
0.308018893003463745 0.115451313555240631 0.0650454387068748474
0.297964125871658325 0.116049595177173615 0.0535571388900279999
0.299283027648925781 0.11601567268371582 0.0530881546437740326
0.308191537857055664 0.115533165633678436 0.0617507100105285645
0.310841172933578491 0.115359991788864136 0.0653004646301269531
0.301045656204223633 0.115820556879043579 0.0593105554580688477
0.312883079051971436 0.115150973200798035 0.0716095045208930969
0.31367221474647522 0.114926978945732117 0.0806001722812652588
0.3069038987159729 0.115539371967315674 0.0631617605686187744
0.309995204210281372 0.115277230739593506 0.0706317871809005737
0.316672801971435547 0.115032218396663666 0.0707397386431694031
0.316811919212341309 0.114839434623718262 0.0794939473271369934
0.314251422882080078 0.115002565085887909 0.0758885890245437622
0.307485669851303101 0.115427620708942413 0.0670075938105583191
0.314825534820556641 0.115100331604480743 0.0710714682936668396
0.316430836915969849 0.114990517497062683 0.0729909241199493408
0.306943804025650024 0.115458302199840546 0.0669449120759963989
0.305072396993637085 0.115616537630558014 0.0625816211104393005
0.316313177347183228 0.115112543106079102 0.0682167932391166687
0.315633714199066162 0.115079626441001892 0.0707118138670921326
0.312174677848815918 0.115219421684741974 0.0697781220078468323
0.311088860034942627 0.11513916403055191 0.0745384320616722107
0.31502068042755127 0.114863090217113495 0.0810219272971153259
0.304640084505081177 0.115588970482349396 0.0642753392457962036
0.294371664524078369 0.123095095157623291 0.0455402657389640808
0.280183374881744385 0.123203948140144348 0.0144429318606853485
0.288963168859481812 0.123135097324848175 0.0338383838534355164
0.281607538461685181 0.123179346323013306 0.0161848962306976318
0.293276995420455933 0.123099565505981445 0.0431693792343139648
0.291450619697570801 0.123100027441978455 0.0386432111263275146
0.290046513080596924 0.123056843876838684 0.0310780927538871765
0.287582188844680786 0.123035073280334473 0.02219400554895401
0.284754663705825806 0.123156197369098663 0.0236660726368427277
0.290686666965484619 0.122925311326980591 0.0224021449685096741
0.287616044282913208 0.123145215213298798 0.0312765203416347504
0.286058187484741211 0.123107574880123138 0.0236570648849010468
0.279413104057312012 0.123220518231391907 0.0132595300674438477
0.289055883884429932 0.123095579445362091 0.0314380601048469543
0.29405781626701355 0.123013518750667572 0.038853377103805542
0.286628633737564087 0.123081497848033905 0.0230187047272920609
0.290532678365707397 0.122970178723335266 0.0254949554800987244
0.291177362203598022 0.122967444360256195 0.0270327460020780563
0.313021302223205566 0.1221175417304039 0.0449929796159267426
0.305198699235916138 0.12244810163974762 0.0389831624925136566
0.307674616575241089 0.122422173619270325 0.0471997857093811035
0.305340856313705444 0.122476287186145782 0.0425362773239612579
0.301598250865936279 0.122654929757118225 0.0403584949672222137
0.298946946859359741 0.122893117368221283 0.0484273731708526611
0.301505237817764282 0.122759677469730377 0.0489029735326766968
0.301683932542800903 0.122749701142311096 0.0481724627315998077
0.300392836332321167 0.122794955968856812 0.0462613888084888458
0.308318227529525757 0.122412420809268951 0.0490411669015884399
0.306528598070144653 0.122300013899803162 0.0332831926643848419
0.305747181177139282 0.122517034411430359 0.0469676032662391663
0.30973479151725769 0.122319906949996948 0.0478798672556877136
0.303903520107269287 0.122587397694587708 0.0450115278363227844
0.30198746919631958 0.122687816619873047 0.0442889295518398285
0.306883245706558228 0.122371241450309753 0.0402103327214717865
0.310476481914520264 0.122251957654953003 0.0451289750635623932
0.306286454200744629 0.122328914701938629 0.0342051908373832703
0.301318228244781494 0.122680880129337311 0.0414375662803649902
0.318118810653686523 0.122280746698379517 0.0662584230303764343
0.315999209880828857 0.122288204729557037 0.061745908111333847
0.298589855432510376 0.122974053025245667 0.0513609759509563446
0.322784781455993652 0.122065909206867218 0.0679244175553321838
0.309863358736038208 0.122513175010681152 0.0580004937946796417
0.325556665658950806 0.121975317597389221 0.0703942924737930298
0.316016942262649536 0.122479639947414398 0.0693166777491569519
0.316315233707427979 0.122330546379089355 0.0644545406103134155
0.304877251386642456 0.122766368091106415 0.0567322932183742523
0.315316468477249146 0.122445203363895416 0.0668711885809898376
0.322610765695571899 0.12204887717962265 0.0664872154593467712
0.298686802387237549 0.122958600521087646 0.0510356128215789795
0.319789767265319824 0.122275523841381073 0.0694079026579856873
0.317483872175216675 0.122227750718593597 0.0626818537712097168
0.320510774850845337 0.122334390878677368 0.073397509753704071
0.324530601501464844 0.122070267796516418 0.0719114392995834351
0.31083342432975769 0.122611477971076965 0.0639218837022781372
0.320482909679412842 0.122268445789813995 0.0704485625028610229
0.313467353582382202 0.122477717697620392 0.0641241520643234253
0.31558266282081604 0.122436985373497009 0.0666855946183204651
0.304222911596298218 0.122828885912895203 0.0575822927057743073
0.301866024732589722 0.123177327215671539 0.0666070654988288879
0.296170204877853394 0.123177967965602875 0.0543585196137428284
0.307999938726425171 0.123132273554801941 0.0787103176116943359
0.304692715406417847 0.123263038694858551 0.0771437585353851318
0.300312995910644531 0.123399019241333008 0.0730819851160049438
0.302238821983337402 0.123063735663890839 0.0630230158567428589
0.304336488246917725 0.123250201344490051 0.0763724744319915771
0.29845660924911499 0.12332422286272049 0.0658415183424949646
0.303720682859420776 0.12328813225030899 0.0753495022654533386
0.303241044282913208 0.123378783464431763 0.0790789872407913208
0.297889053821563721 0.123500935733318329 0.0718150883913040161
0.296657264232635498 0.123302333056926727 0.0606605745851993561
0.303246527910232544 0.123246856033802032 0.0728166624903678894
0.306324213743209839 0.123035028576850891 0.0707640349864959717
0.312960654497146606 0.122975364327430725 0.0831687971949577332
0.298552960157394409 0.123249523341655731 0.062656790018081665
0.298455923795700073 0.123284809291362762 0.0643211901187896729
0.299528211355209351 0.123170286417007446 0.0617561787366867065
0.300107598304748535 0.123434312641620636 0.0742800235748291016
0.29714202880859375 0.123614862561225891 0.075341641902923584
0.29984813928604126 0.123078614473342896 0.0584058128297328949
0.300549626350402832 0.123257093131542206 0.0677353739738464355
0.306255936622619629 0.123145341873168945 0.0754157155752182007
0.295317471027374268 0.123107485473155975 0.0498229973018169403
0.297901958227157593 0.123150192201137543 0.0576478429138660431
0.303886711597442627 0.123160481452941895 0.0710249245166778564
0.296659499406814575 0.123512022197246552 0.0699463561177253723
0.286890566349029541 0.123522944748401642 0.0482583902776241302
0.284837007522583008 0.123763516545295715 0.053765028715133667
0.28112301230430603 0.123838134109973907 0.048713143914937973
0.280051887035369873 0.124100536108016968 0.0568262524902820587
0.289384007453918457 0.123525597155094147 0.0536187551915645599
0.287712693214416504 0.123498186469078064 0.0491080433130264282
0.281718462705612183 0.124040037393569946 0.0579567067325115204
0.276450514793395996 0.124258033931255341 0.0555738992989063263
0.282541811466217041 0.124095194041728973 0.0624036304652690887
0.28278118371963501 0.123953387141227722 0.0568526461720466614
0.273778438568115234 0.124177008867263794 0.0466978102922439575
0.28596833348274231 0.123597770929336548 0.049296107143163681
0.291104942560195923 0.123410992324352264 0.052969764918088913
0.28201940655708313 0.124042361974716187 0.058668576180934906
0.286249518394470215 0.123660825192928314 0.0522847734391689301
0.286981791257858276 0.123631790280342102 0.0529319755733013153
0.282736748456954956 0.123880207538604736 0.0537743754684925079
0.276506572961807251 0.124280527234077454 0.056585848331451416
0.287137418985366821 0.123560622334480286 0.0504668951034545898
0.280013799667358398 0.123910263180732727 0.0494168438017368317
0.267445921897888184 0.124023765325546265 0.0287067964673042297
0.278724759817123413 0.123488128185272217 0.0305509120225906372
0.271523237228393555 0.123619787395000458 0.0206998009234666824
0.284149110317230225 0.123435318470001221 0.0397242046892642975
0.284392446279525757 0.12346668541431427 0.0413258299231529236
0.270403027534484863 0.123931773006916046 0.0311256349086761475
0.278085321187973022 0.123645506799221039 0.0355940945446491241
0.288474678993225098 0.12328626960515976 0.0421752482652664185
0.271939307451248169 0.123644933104515076 0.0227598827332258224
0.272773504257202148 0.123575739562511444 0.0219336282461881638
0.27688029408454895 0.123596273362636566 0.0310305170714855194
0.268878668546676636 0.123983509838581085 0.0301024597138166428
0.284979939460754395 0.123331494629383087 0.0368246659636497498
0.286687850952148438 0.123284406960010529 0.0386623218655586243
0.280006706714630127 0.123579375445842743 0.0367127209901809692
0.270851075649261475 0.123744860291481018 0.0245778691023588181
0.285913437604904175 0.123314619064331055 0.0386191345751285553
0.269628912210464478 0.12375757098197937 0.0225032884627580643
0.283295154571533203 0.123453326523303986 0.0384773686528205872
0.268511980772018433 0.116680368781089783 0.117286354303359985
0.269757866859436035 0.116629183292388916 0.118183135986328125
0.273136705160140991 0.116561315953731537 0.123342975974082947
0.284112125635147095 0.115927465260028839 0.123552046716213226
0.284553200006484985 0.115909814834594727 0.124143101274967194
0.273163676261901855 0.116554975509643555 0.123144917190074921
0.273470848798751831 0.116511747241020203 0.122078195214271545
0.282593816518783569 0.116035453975200653 0.124198496341705322
0.274334579706192017 0.116408966481685638 0.120317675173282623
0.294268101453781128 0.115752771496772766 0.128097265958786011
0.287978053092956543 0.116482183337211609 0.130680769681930542
0.288616746664047241 0.116013884544372559 0.127716675400733948
0.285796910524368286 0.116246707737445831 0.128222674131393433
0.294834733009338379 0.115772657096385956 0.12845650315284729
0.315072238445281982 0.115650787949562073 0.132549464702606201
0.307746350765228271 0.115573383867740631 0.130163118243217468
0.31206214427947998 0.115491889417171478 0.130837783217430115
0.304886043071746826 0.11561141163110733 0.129633277654647827
0.310074657201766968 0.115489594638347626 0.130312532186508179
0.310008078813552856 0.114845588803291321 0.126678928732872009
0.309665024280548096 0.11471547931432724 0.125852257013320923
0.312491744756698608 0.114876307547092438 0.127521634101867676
0.323648691177368164 0.114609353244304657 0.129012063145637512
0.31583896279335022 0.114508472383022308 0.126352265477180481
0.310217708349227905 0.114865072071552277 0.126882255077362061
0.295371055603027344 0.115249097347259521 0.123005025088787079
0.297232717275619507 0.115170568227767944 0.12348523736000061
0.298789530992507935 0.115055665373802185 0.122365385293960571
0.307489156723022461 0.114526093006134033 0.118624746799468994
0.307180017232894897 0.11457718163728714 0.119838744401931763
0.310519486665725708 0.114388242363929749 0.118867628276348114
0.298988878726959229 0.114961646497249603 0.119567431509494781
0.298685461282730103 0.1148967444896698 0.116634875535964966
0.286520153284072876 0.115687005221843719 0.120184451341629028
0.284484773874282837 0.11573328822851181 0.117269597947597504
0.276741176843643188 0.116034910082817078 0.110941074788570404
0.290487021207809448 0.115518525242805481 0.122630886733531952
0.282737255096435547 0.115771576762199402 0.114281937479972839
0.277901262044906616 0.116013959050178528 0.113784074783325195
0.293141841888427734 0.11540047824382782 0.123973526060581207
0.283337712287902832 0.115728124976158142 0.113648533821105957
0.286857068538665771 0.115618430078029633 0.1178274005651474
0.276300966739654541 0.129078894853591919 0.125517264008522034
0.268680810928344727 0.129874750971794128 0.126525923609733582
0.276907056570053101 0.129038482904434204 0.125592440366744995
0.273044973611831665 0.12929941713809967 0.125142648816108704
0.284834235906600952 0.128440573811531067 0.126104682683944702
0.289743214845657349 0.127044185996055603 0.118977531790733337
0.294445037841796875 0.127114653587341309 0.122310824692249298
0.295017838478088379 0.126270845532417297 0.116303406655788422
0.294421613216400146 0.126874834299087524 0.12045915424823761
0.286346435546875 0.127480819821357727 0.120124407112598419
0.288134276866912842 0.127053305506706238 0.117996200919151306
0.293574482202529907 0.127285420894622803 0.123024202883243561
0.291394740343093872 0.127073094248771667 0.120135515928268433
0.287791997194290161 0.1270732581615448 0.117870718240737915
0.322377443313598633 0.124553278088569641 0.116868339478969574
0.312578082084655762 0.125111892819404602 0.116455197334289551
0.30922362208366394 0.125879943370819092 0.120436690747737885
0.306923925876617432 0.126486971974372864 0.123846158385276794
0.314696371555328369 0.125144734978675842 0.117674678564071655
0.313781917095184326 0.125256255269050598 0.118072725832462311
0.310507237911224365 0.125525802373886108 0.118496350944042206
0.317129164934158325 0.12521110475063324 0.119321204721927643
0.305948168039321899 0.126447781920433044 0.123086720705032349
0.318057596683502197 0.125038772821426392 0.118467032909393311
0.307991206645965576 0.126227721571922302 0.122467488050460815
0.304868459701538086 0.126560509204864502 0.1234164759516716
0.314337700605392456 0.126518040895462036 0.127618327736854553
0.328813344240188599 0.12543913722038269 0.126379251480102539
0.316097944974899292 0.12637878954410553 0.127402395009994507
0.309489607810974121 0.126727834343910217 0.126795709133148193
0.306863754987716675 0.12691381573677063 0.126886174082756042
0.32433319091796875 0.125913888216018677 0.127888336777687073
0.309262245893478394 0.126859843730926514 0.127731367945671082
0.32938086986541748 0.125399306416511536 0.126390784978866577
0.306744694709777832 0.127057135105133057 0.127988129854202271
0.321153491735458374 0.126401782035827637 0.130117952823638916
0.299540966749191284 0.127429783344268799 0.127284824848175049
0.299524903297424316 0.127917543053627014 0.131162494421005249
