ply
format ascii 1.0
element vertex 719
property float x
property float y
property float z
end_header
-0.104624293744564056 0.256096571683883667 -0.0145913790911436081
0.00141537119634449482 0.0312215741723775864 -0.00393473729491233826
-0.437817215919494629 -0.272788107395172119 0.00253724097274243832
0.429504662752151489 0.284496009349822998 -0.0235951375216245651
0.09925069659948349 0.0900178253650665283 -0.00775433797389268875
-0.29412919282913208 -0.231154292821884155 0.00493511836975812912
0.376834303140640259 0.236025050282478333 0.00782369449734687805
-0.652466654777526855 0.0504235215485095978 -0.00786211900413036346
0.252052873373031616 0.288179963827133179 -0.0119849583134055138
-0.371644020080566406 -0.31383901834487915 -0.00020924690761603415
0.887528002262115479 0.338714659214019775 -0.000242628928390331566
-0.735276281833648682 -0.350228458642959595 -0.00700890226289629936
-1.00135123729705811 -0.348168849945068359 -7.49737591831944883e-05
0.470542818307876587 0.407924622297286987 0.00224858429282903671
-0.927309155464172363 -0.217195391654968262 0.00598563347011804581
0.17949269711971283 0.2600574791431427 -0.00729420268908143044
-0.951021552085876465 0.312693774700164795 -0.0111520709469914436
0.100814536213874817 0.199591994285583496 0.00280615687370300293
-0.43509247899055481 -0.0182118602097034454 -0.00484587391838431358
-0.610845029354095459 -0.0196685176342725754 0.0113290715962648392
-0.0745215862989425659 0.285999834537506104 -0.00256032706238329411
-1.00272238254547119 -0.378856658935546875 -0.00690149515867233276
0.641951084136962891 0.377114206552505493 -0.000346220884239301085
-0.269161969423294067 -0.0644855350255966187 0.00187919940799474716
0.281801193952560425 0.226877406239509583 5.61130909773055464e-05
0.533783316612243652 0.332461953163146973 -0.0112231476232409477
-0.208901137113571167 0.0156956035643815994 -0.00202687387354671955
0.270089775323867798 0.392965257167816162 0.00273380428552627563
-0.641897797584533691 0.28812861442565918 -0.00782748963683843613
0.801951944828033447 0.405245602130889893 -0.00362624973058700562
-0.715395212173461914 -0.153383582830429077 -0.00620661815628409386
-0.987286269664764404 0.288920074701309204 -0.00438073370605707169
0.413341701030731201 0.411985844373703003 -0.0133072976022958755
0.20617307722568512 0.265527486801147461 -0.00516072195023298264
-0.0654679238796234131 0.423061251640319824 -0.00883746054023504257
-0.741200268268585205 0.238726645708084106 -0.00116814568173140287
-0.385512948036193848 -0.214907050132751465 -0.00754775200039148331
0.831251025199890137 0.31792140007019043 -0.0206760670989751816
0.0341981090605258942 0.0305167902261018753 0.00204863189719617367
-0.0262464545667171478 0.332349598407745361 0.00839581340551376343
-0.633810698986053467 -0.166024163365364075 0.00738015212118625641
-0.907634913921356201 -0.265152782201766968 -0.0058977985754609108
-0.222404539585113525 0.278336554765701294 -0.00879867468029260635
-0.604468345642089844 -0.203135013580322266 -0.00411446858197450638
-0.675887823104858398 -0.242599427700042725 0.0172362681478261948
-0.44351312518119812 0.284140020608901978 -0.00313999992795288563
-0.891804754734039307 0.194235429167747498 -0.00669675972312688828
-0.119083814322948456 0.253538459539413452 -0.0152221359312534332
0.465672969818115234 0.332386165857315063 0.00595924397930502892
-0.66014629602432251 -0.410791963338851929 0.00648759910836815834
-0.622374355792999268 -0.178544551134109497 0.0127286370843648911
0.385418146848678589 0.187645554542541504 -0.00794335827231407166
-0.584588527679443359 -0.301672488451004028 -0.0209563206881284714
0.778418600559234619 0.345252573490142822 0.00540761416777968407
-0.0223742220550775528 -0.080225922167301178 0.00919759552925825119
-0.280154943466186523 0.0533308535814285278 0.00229321536608040333
-0.245772585272789001 -0.0386438854038715363 -0.0102228457108139992
-0.837791323661804199 0.0524001419544219971 0.00546304509043693542
0.109919935464859009 0.226259037852287292 -0.00266754208132624626
-0.949956417083740234 0.0654665380716323853 -0.0117097543552517891
-0.213057979941368103 0.284511685371398926 -0.0167187750339508057
-0.442300796508789062 -0.280776321887969971 -0.0109948627650737762
-0.191618770360946655 0.0962570160627365112 -0.0129312342032790184
-0.336555063724517822 -0.162594333291053772 0.0073067517951130867
-0.585598349571228027 -0.142661511898040771 -0.0122648132964968681
-0.455759048461914062 -0.212096095085144043 -0.00404077209532260895
-0.332979679107666016 -0.0262972228229045868 0.00113948690705001354
-0.733327388763427734 0.141038060188293457 -0.0146664222702383995
-0.903008222579956055 -0.0521657317876815796 0.00830423180013895035
-0.915898323059082031 -0.473565280437469482 -0.0130599597468972206
0.0649763643741607666 0.196848854422569275 0.00272247008979320526
-0.566184163093566895 0.221392616629600525 -0.00201357784681022167
0.199016079306602478 0.219677403569221497 0.00174724566750228405
-0.131196200847625732 -0.00491434847936034203 -0.0152455875650048256
-0.518068373203277588 0.391691714525222778 -0.0158094167709350586
-0.868155539035797119 -0.323484987020492554 -0.00897910818457603455
-0.229587987065315247 0.267636150121688843 -0.0126035725697875023
-0.618324160575866699 0.429654181003570557 -0.0017212138045579195
-0.831566572189331055 -0.327840834856033325 -0.012744121253490448
-0.00852631591260433197 0.317916601896286011 -0.00667064916342496872
-0.939749181270599365 0.267104446887969971 0.00606547482311725616
0.0840189680457115173 0.0573350042104721069 -0.0125920120626688004
-0.365961283445358276 0.151466146111488342 0.00768185732886195183
-0.415105998516082764 -0.296119034290313721 0.00437949784100055695
-0.283371686935424805 0.381045758724212646 -0.0074773002415895462
-0.740148365497589111 0.0895294845104217529 -0.00536325061693787575
-0.216390535235404968 0.36106032133102417 0.00550248753279447556
-0.073060251772403717 0.195886075496673584 -0.0187193788588047028
-0.747318267822265625 0.151011183857917786 -0.0174381434917449951
-0.54688495397567749 -0.290278315544128418 -0.0034184860996901989
-0.555546581745147705 0.0837071612477302551 -0.00763303367421030998
-0.146351814270019531 0.171129524707794189 -0.00266381539404392242
-0.76424860954284668 -0.315442770719528198 -0.0015619032783433795
0.0176926460117101669 0.0905057117342948914 -0.000112149151391349733
0.560087323188781738 0.211208298802375793 0.000464554148493334651
-0.899329721927642822 0.416393458843231201 -0.00185370026156306267
-0.88439708948135376 0.187823936343193054 -0.00238331221044063568
-0.363139718770980835 -0.0337935946881771088 -0.0099932793527841568
0.362001746892929077 0.278429687023162842 -0.00297510018572211266
-0.84438246488571167 0.0327311567962169647 -0.0171180516481399536
-0.442721635103225708 0.389048963785171509 -0.0172126330435276031
-0.872204124927520752 0.37485995888710022 -0.00730168493464589119
-0.891148865222930908 -0.0289967376738786697 -0.00731505872681736946
-0.469917148351669312 -0.152247980237007141 0.00827566906809806824
0.0464681163430213928 0.115882396697998047 -0.0118375271558761597
-0.697633147239685059 0.144892111420631409 -0.000933728006202727556
0.548902571201324463 0.445483982563018799 -0.00451205763965845108
-0.406927168369293213 -0.264618635177612305 -0.00666731549426913261
-0.438830822706222534 -0.269735962152481079 0.0162133313715457916
-0.00297140027396380901 -0.0964357852935791016 -0.00318358279764652252
-0.605881571769714355 -0.409521281719207764 -0.00715378997847437859
-0.625298678874969482 -0.363914996385574341 -0.00211956817656755447
-0.353155195713043213 0.303517550230026245 -0.0022488932590931654
-0.0305320993065834045 0.260551750659942627 -0.00376760843209922314
1.0992356538772583 0.454405695199966431 -0.00161617156118154526
-0.6060371994972229 0.143698737025260925 0.0113320797681808472
-0.913096427917480469 -0.269027113914489746 0.0072268838994204998
0.493127048015594482 0.231371834874153137 0.00158005859702825546
-0.946629106998443604 -0.0860284417867660522 -0.0154091836884617805
-0.244041860103607178 0.0674132853746414185 -0.00724789360538125038
-0.245984986424446106 -0.112425006926059723 0.000880110368598252535
-0.0455093756318092346 0.263788729906082153 0.0126418452709913254
-0.950059473514556885 0.120308198034763336 0.00821501296013593674
-0.74754410982131958 0.0931016728281974792 -0.0149361668154597282
0.515074789524078369 0.395553290843963623 -0.00528402533382177353
-0.745518267154693604 -0.295876026153564453 -0.0161927975714206696
-0.66094285249710083 -0.433035224676132202 -0.00196059467270970345
0.162217095494270325 0.439922064542770386 -0.0135211683809757233
0.844649195671081543 0.318415999412536621 -0.0168347768485546112
0.312015563249588013 0.416487812995910645 0.00146417354699224234
0.109451182186603546 0.192293420433998108 -0.003777332603931427
-0.694234549999237061 -0.109268367290496826 0.000952223315834999084
-0.757868051528930664 -0.088265247642993927 0.00893782265484333038
-0.79988408088684082 -0.435334146022796631 -0.00582923367619514465
-0.416252255439758301 -0.184677764773368835 -0.00720223458483815193
-0.801009774208068848 -0.389823019504547119 -0.0043259267695248127
-0.557586491107940674 0.268558293581008911 -0.006291988305747509
0.0113115264102816582 -0.100171253085136414 -0.0071999584324657917
0.0678494572639465332 0.215259194374084473 -0.00531526561826467514
-0.966831386089324951 -0.573122739791870117 -0.0108750546351075172
-0.483193278312683105 0.431775689125061035 3.38596328219864517e-05
-0.168693229556083679 0.315719634294509888 -0.00135453417897224426
-0.226464658975601196 0.357079178094863892 0.00429345946758985519
-0.235677361488342285 0.340665251016616821 0.00905145425349473953
-1.01248657703399658 -0.488355576992034912 -0.00686959270387887955
0.496714323759078979 0.378754317760467529 -0.00505490973591804504
-0.527334809303283691 0.327474415302276611 -0.00156526186037808657
-0.508909344673156738 -0.098872162401676178 -0.00552971940487623215
-0.756797075271606445 0.389730572700500488 -0.00966480933129787445
0.486291378736495972 0.151871040463447571 -0.0022495584562420845
-0.863583028316497803 -0.0295794717967510223 0.00683335261419415474
0.288633197546005249 0.291536927223205566 -0.00793863739818334579
0.0308306384831666946 0.338963150978088379 -0.0081172604113817215
-0.972096860408782959 -0.351572960615158081 -0.0101019842550158501
0.301398396492004395 0.289904803037643433 -0.00307764438912272453
-0.932352244853973389 0.369160979986190796 -0.0114545803517103195
-0.472698390483856201 0.457481294870376587 0.00371883250772953033
-0.704307198524475098 0.0576039776206016541 0.00937697943300008774
-0.753872931003570557 -0.11434471607208252 -0.0124196307733654976
0.535328090190887451 0.206393226981163025 0.00268848915584385395
-0.360033810138702393 -0.125682145357131958 -0.00503941997885704041
-1.01183235645294189 -0.511666953563690186 -0.00937705393880605698
0.724744975566864014 0.428702563047409058 0.0036182135809212923
0.46786007285118103 0.409073829650878906 0.00217113015241920948
-0.869045495986938477 0.169907987117767334 0.0150390798225998878
0.580720365047454834 0.330398678779602051 -0.0215326901525259018
-0.887470901012420654 -0.478649169206619263 -0.0034067144151777029
0.768742263317108154 0.328248858451843262 0.0183779522776603699
0.34341004490852356 0.335957586765289307 -0.00941681955009698868
-0.699839591979980469 0.383183866739273071 0.00830473657697439194
-0.931441366672515869 -0.579239964485168457 -0.00376158766448497772
-0.978323280811309814 0.45578610897064209 0.00164619134739041328
-0.222806811332702637 -0.0189703274518251419 -0.0211668256670236588
-0.527396023273468018 -0.313115239143371582 0.00409920327365398407
-0.820152461528778076 -0.0796699747443199158 -0.00166417367290705442
-0.49365609884262085 0.277039527893066406 -0.00757652195170521736
-1.0179978609085083 -0.283648014068603516 -0.0068045835942029953
-0.0173448957502841949 0.182710453867912292 -0.014501962810754776
-0.486425846815109253 0.211014419794082642 -0.00802503898739814758
-0.744015097618103027 -0.485474586486816406 -0.00271854270249605179
-0.50411301851272583 -0.0478136502206325531 -0.00682609155774116516
-0.851148426532745361 -0.0126432469114661217 -0.00546852778643369675
-0.258548170328140259 -0.192492753267288208 0.0056786639615893364
-0.853283226490020752 0.276173442602157593 0.00758818956092000008
0.372637420892715454 0.298043012619018555 -0.00455447426065802574
0.646113038063049316 0.367213129997253418 -0.0163781903684139252
-0.344593137502670288 0.303341209888458252 -0.000986822182312607765
-0.11402902752161026 0.0507049709558486938 -0.0197991281747817993
-0.101221911609172821 0.0950864329934120178 -0.00165658374316990376
0.565710961818695068 0.248440340161323547 0.00188119371887296438
-0.494679242372512817 0.392897635698318481 0.00156952126417309046
-0.175725102424621582 0.216721817851066589 0.000213166727917268872
-0.538164317607879639 -0.115305572748184204 -0.00209127506241202354
0.409311383962631226 0.369011878967285156 0.0109320245683193207
-0.878262042999267578 -0.550252616405487061 -0.00208792043849825859
-0.735774874687194824 0.245435655117034912 0.00244206679053604603
-0.506692886352539062 -0.313488632440567017 0.000354275689460337162
-0.529994606971740723 -0.199280664324760437 -0.00435355352237820625
0.855210065841674805 0.458893716335296631 0.0130051523447036743
0.152106910943984985 0.3723297119140625 0.00170354545116424561
-0.11338835209608078 0.00199781637638807297 -0.014185125008225441
-0.360509008169174194 -0.222197249531745911 0.00636278511956334114
-0.727461457252502441 -0.00601351214572787285 -0.0104242274537682533
-0.92255866527557373 -0.488282859325408936 -0.00172941735945641994
-0.350162774324417114 -0.0873647257685661316 -0.0108855757862329483
-0.91430974006652832 -0.570337831974029541 -0.00918033532798290253
-0.952568650245666504 -0.572203457355499268 -0.0150924725458025932
-0.040431484580039978 0.0208971444517374039 -0.0134750781580805779
-0.513847768306732178 -0.0384238883852958679 -0.0132449576631188393
-0.881570696830749512 -0.0261676423251628876 -0.00712559279054403305
-0.590520083904266357 0.170051455497741699 -0.00867245346307754517
-0.534785687923431396 0.0623321421444416046 -8.87575952219776809e-05
0.253470897674560547 0.174541622400283813 -0.00335485907271504402
-0.464956223964691162 -0.217094242572784424 0.00827487371861934662
0.872240722179412842 0.343511730432510376 0.00692413514479994774
-0.595333874225616455 -0.270544826984405518 -0.00101562845520675182
0.715607941150665283 0.29416307806968689 -0.00962265580892562866
-0.639573991298675537 0.2238493412733078 -0.0173624325543642044
-0.448068678379058838 -0.201134636998176575 -0.00424108142033219337
-0.60762321949005127 -0.356662124395370483 0.000868898932822048664
-0.451084315776824951 0.0936294198036193848 0.00263419374823570251
-0.810315370559692383 0.445172488689422607 -0.0101055782288312912
0.659607172012329102 0.452163904905319214 -0.0113723911345005035
1.10510163722210564e-05 -0.084050394594669342 -0.00264184479601681232
0.0262368880212306976 0.397982746362686157 -0.00991296861320734024
-0.404539644718170166 -0.112159430980682373 -0.00190815271344035864
-0.941015243530273438 -0.00118425290565937757 6.16964534856379032e-05
-0.148664996027946472 0.196806237101554871 -0.0136571051552891731
-0.317646414041519165 0.204463586211204529 -0.00433988450095057487
-0.315250515937805176 0.220297157764434814 -0.00419855816289782524
-0.853938043117523193 -0.394247204065322876 -0.02252170629799366
-0.855676829814910889 0.445223093032836914 -0.0148279126733541489
0.291883498430252075 0.0690268129110336304 -0.00263654859736561775
-0.963864624500274658 -0.29356810450553894 0.0186160150915384293
-0.967665791511535645 0.189768731594085693 -0.0103400936350226402
-0.956347107887268066 -0.0906898602843284607 0.0225153621286153793
-0.152771949768066406 0.390050530433654785 -0.0164421349763870239
-0.747938752174377441 0.311996102333068848 -0.000320632185321301222
-0.0638936460018157959 0.362260729074478149 -0.0248468685895204544
0.377153486013412476 0.462810695171356201 0.0038037165068089962
-0.996687412261962891 0.254682540893554688 -0.00684803444892168045
0.734708011150360107 0.293882071971893311 -0.0181951373815536499
-0.751578927040100098 -0.0950419381260871887 -0.0115451458841562271
-0.304093301296234131 0.0241516511887311935 0.00485639180988073349
-0.514259815216064453 0.411793023347854614 -0.00927723105996847153
-0.974795162677764893 -0.0950227677822113037 0.00195950735360383987
-0.587050259113311768 -0.0976884141564369202 -0.014865475706756115
-0.50311654806137085 0.443292826414108276 -0.0104429805651307106
0.0330259203910827637 -0.0763129740953445435 -0.00825912784785032272
0.176795229315757751 0.171511352062225342 -0.00722172856330871582
-0.742042124271392822 0.350877821445465088 -0.00594263151288032532
-0.749166488647460938 -0.0480619780719280243 0.00635414104908704758
0.206148624420166016 0.35831800103187561 -0.00966462399810552597
0.0578064844012260437 0.146146818995475769 -0.00600222032517194748
0.839834094047546387 0.432015568017959595 -0.00543243018910288811
-0.0129567366093397141 -0.0937245041131973267 0.0141187701374292374
-0.905792117118835449 -0.00303348922170698643 -0.0054645235650241375
0.105904906988143921 0.140916690230369568 0.0120129343122243881
-0.713199436664581299 0.093929193913936615 0.0105053167790174484
-0.586396872997283936 -0.370192408561706543 -0.000770699931308627129
0.171645998954772949 0.232660233974456787 -0.0212561320513486862
-0.389595061540603638 0.0327645987272262573 -0.00454348325729370117
0.0357066616415977478 0.0549415312707424164 -0.0018113250844180584
-0.111780360341072083 0.187944129109382629 -0.00973506923764944077
-0.414609432220458984 -0.14707636833190918 -0.00414055353030562401
0.106532484292984009 0.222262740135192871 0.00189861608669161797
-0.996235132217407227 -0.285349011421203613 -0.00722853932529687881
-1.01900672912597656 0.287643283605575562 -0.0167325939983129501
-0.725007951259613037 0.441423475742340088 -0.00944766681641340256
0.892279267311096191 0.353516638278961182 -0.0169959347695112228
-0.464751303195953369 0.460201382637023926 -0.0126149831339716911
-0.843526601791381836 0.0933508574962615967 0.00969574321061372757
-0.95103156566619873 0.359972268342971802 -0.0111830225214362144
-0.127427160739898682 -0.190683826804161072 -0.00169280276168137789
-0.60452878475189209 0.208948507905006409 -0.00617071054875850677
-1.0034022331237793 -0.623328328132629395 0.00432309927418828011
-0.154686480760574341 -0.114565253257751465 -0.0141952866688370705
0.351391404867172241 0.243869632482528687 -0.0144072836264967918
0.137545883655548096 0.234106346964836121 -0.0094912797212600708
-0.404234647750854492 0.228184536099433899 -0.0103139886632561684
-1.01556217670440674 -0.277262568473815918 -0.00279199122451245785
0.0377302840352058411 0.353909224271774292 -0.00748308515176177025
-0.598077833652496338 0.03337831050157547 0.00187795562669634819
0.101173296570777893 0.154284626245498657 -0.0157507080584764481
-0.0336136147379875183 0.204794034361839294 0.0047146347351372242
-0.301509290933609009 -0.26693260669708252 -0.0122105618938803673
0.0466073565185070038 -0.0527405925095081329 -0.00246569490991532803
-0.0335514917969703674 -0.062771230936050415 -0.0195235889405012131
-0.898792505264282227 -0.224893614649772644 -0.00980597734451293945
-0.283747255802154541 -0.0806125327944755554 0.00120898766908794641
0.0579482130706310272 0.0501862168312072754 0.000191561906831339002
-0.217007681727409363 0.354955404996871948 -0.00460817106068134308
-0.992485404014587402 -0.199430763721466064 -0.00887391157448291779
-0.152608722448348999 -0.126276686787605286 0.00026443571550771594
-0.161835089325904846 0.0496308319270610809 -0.00236845226027071476
-0.965274930000305176 0.34237593412399292 -0.0099290069192647934
0.433638483285903931 0.375768989324569702 -0.00707713374868035316
0.632484793663024902 0.225863814353942871 -0.00901529565453529358
-0.700943589210510254 -0.221052557229995728 0.00286358455196022987
-0.679101347923278809 0.142655804753303528 -0.00697784218937158585
0.0730363652110099792 0.360550016164779663 -0.00898036174476146698
-0.718223869800567627 -0.033727642148733139 -0.00893297512084245682
-0.742037951946258545 -0.114300154149532318 0.00117045093793421984
-0.789794504642486572 -0.0239370744675397873 -0.00351403560489416122
-0.406445413827896118 0.0502546802163124084 -0.00321821402758359909
0.224829629063606262 0.0430511310696601868 -0.00836213771253824234
-0.944936633110046387 0.30464288592338562 -0.00848719384521245956
0.825608968734741211 0.300873488187789917 -0.0142411179840564728
-0.000780435977503657341 0.172136306762695312 0.0104114348068833351
-0.266262710094451904 -0.0986822023987770081 0.00217658584006130695
-0.52050173282623291 -0.222959369421005249 -0.0201710909605026245
-0.46190255880355835 0.127886712551116943 -0.0129470452666282654
-0.964074432849884033 -0.457226991653442383 0.0123812379315495491
-0.851862549781799316 -0.452091395854949951 0.0114146936684846878
-0.37726554274559021 -0.124718286097049713 -0.0078076622448861599
-0.168722659349441528 -0.0801153182983398438 -0.0147737599909305573
0.0608913004398345947 0.311867356300354004 0.00627981824800372124
-0.352162867784500122 0.37138637900352478 0.00633078161627054214
0.117517180740833282 0.371558904647827148 -0.00932533759623765945
-0.624606668949127197 0.153323188424110413 -0.0062250862829387188
0.307723313570022583 0.0685922279953956604 -0.000154811306856572628
-0.54845881462097168 0.209545537829399109 0.0124760512262582779
-0.0784137770533561707 0.00198520789854228497 0.00747726624831557274
0.380970746278762817 0.178293228149414062 0.0214632488787174225
-0.031024077907204628 0.187322854995727539 -0.0179130546748638153
-0.938058316707611084 -0.601114273071289062 0.00394498277455568314
0.571686089038848877 0.29718017578125 -0.0114037208259105682
-0.184788048267364502 0.315397322177886963 -0.0102136135101318359
0.458160251379013062 0.114824593067169189 -0.00753111857920885086
-0.677573084831237793 -0.0238195639103651047 -0.00518088182434439659
0.681598663330078125 0.379522979259490967 -0.00959712080657482147
-0.601353168487548828 -0.0282007120549678802 0.0140779884532094002
-0.654958784580230713 0.118802949786186218 -0.00684244325384497643
-0.787249326705932617 0.134729772806167603 0.0100062191486358643
0.193733289837837219 0.0972850993275642395 0.00566940987482666969
-0.5508766770362854 -0.0438214465975761414 -0.00352388294413685799
-0.937369823455810547 -0.298005610704421997 0.000531758822035044432
0.361208796501159668 0.210098817944526672 0.003826571861281991
-0.8478127121925354 -0.166347160935401917 -0.00310373981483280659
-0.074496932327747345 0.0970793887972831726 -0.00467729195952415466
-0.986364662647247314 -0.533434927463531494 -0.000224251372856087983
-0.86572188138961792 0.296124815940856934 0.00299271335825324059
-0.247609823942184448 0.147496819496154785 -0.00168832461349666119
-0.671759843826293945 -0.216978088021278381 -0.0125408796593546867
-0.324617683887481689 0.32375490665435791 0.00770043767988681793
0.397502005100250244 0.227952808141708374 -0.00382924149744212627
-0.966217100620269775 0.462936222553253174 -0.0133608877658843994
0.52449566125869751 0.190188109874725342 -0.00920054130256175995
-0.91676861047744751 -0.388167083263397217 -0.00284715322777628899
-0.60120779275894165 0.23852907121181488 -0.00576959177851676941
-0.706869006156921387 -0.192818060517311096 -0.00475745135918259621
-0.82098698616027832 -0.362157732248306274 -0.0131981903687119484
-0.844401836395263672 0.246744126081466675 -0.00647401437163352966
-0.562515795230865479 0.173196569085121155 -0.00144907343201339245
-0.840437829494476318 0.412709742784500122 0.0034707188606262207
-0.371106505393981934 0.313119173049926758 -0.00782885123044252396
-0.937583446502685547 -0.286764293909072876 0.000652231276035308838
-0.469629138708114624 0.102409601211547852 -0.00122268940322101116
-0.081313401460647583 -0.140166416764259338 -0.00268967589363455772
0.0650473162531852722 0.0811460018157958984 -0.00245054322294890881
0.132909342646598816 0.41770780086517334 0.00679416535422205925
-0.0753821209073066711 0.0893440693616867065 0.0128656337037682533
-0.853618741035461426 0.137511283159255981 0.000543238711543381214
0.134729787707328796 0.0750721022486686707 -0.00224234466440975666
-0.92715752124786377 0.256343990564346313 -0.000649656285531818867
-0.235381603240966797 -0.00853587780147790909 -0.0052110026590526104
0.310433000326156616 0.131239816546440125 -0.00469153281301259995
-0.91038435697555542 -0.0429407171905040741 0.00208491506054997444
-0.508731603622436523 0.284851729869842529 0.00477716000750660896
-0.145212277770042419 -0.130427330732345581 0.0181505829095840454
-0.460586011409759521 -0.285314679145812988 -0.0162787940353155136
0.62907874584197998 0.297312736511230469 0.00320050748996436596
-0.783653080463409424 -0.0244640707969665527 0.000430487998528406024
-0.633608222007751465 -0.0933684557676315308 -0.00639192992821335793
0.161253347992897034 0.394949793815612793 -0.00838003866374492645
-0.395511865615844727 0.123840481042861938 0.00422970950603485107
-0.206678733229637146 0.351408630609512329 -0.0106665240600705147
-0.407188177108764648 0.196733772754669189 -0.00711993267759680748
-0.815485656261444092 -0.402260631322860718 -0.00536939036101102829
-0.507415890693664551 -0.305513352155685425 -0.00882508698850870132
-0.176611050963401794 0.446265518665313721 -0.0105190472677350044
-0.245850354433059692 0.458123445510864258 -0.00559929618611931801
-0.347769349813461304 -0.156038671731948853 0.00159520702436566353
-0.341581344604492188 0.236307278275489807 -0.00408852752298116684
0.20554429292678833 0.0163770243525505066 -0.00627411017194390297
-0.259661346673965454 0.37886539101600647 -0.00981231778860092163
-0.704964935779571533 -0.417126893997192383 -0.0101668275892734528
0.326592713594436646 0.134165436029434204 -0.0276362914592027664
0.298790484666824341 0.359949588775634766 0.0105766309425234795
0.528197407722473145 0.292671054601669312 0.00150617817416787148
-0.0318274050951004028 0.367365092039108276 -0.0166773572564125061
-0.140466615557670593 0.0357276946306228638 -0.000293377990601584315
-0.17430289089679718 0.163454517722129822 0.00357291661202907562
0.789251565933227539 0.428142189979553223 -0.0112599972635507584
0.0911246761679649353 0.398491054773330688 -0.00143253605347126722
-0.668712794780731201 -0.0213815029710531235 -0.00211974279955029488
-0.546860218048095703 -0.031434137374162674 -0.00400100322440266609
-0.253696441650390625 -0.160404503345489502 -0.00410809833556413651
-0.635963916778564453 -0.227119088172912598 -0.00255700806155800819
-0.0059811868704855442 0.0393913872539997101 0.0025586539413779974
-0.319220930337905884 0.13458620011806488 -0.00666806846857070923
0.433546543121337891 0.163388028740882874 -0.00343852164223790169
-0.462531328201293945 -0.248874366283416748 -0.0171366836875677109
-0.238230153918266296 0.259110987186431885 0.00674634706228971481
-0.967112421989440918 0.151328131556510925 0.00326102995313704014
0.449187219142913818 0.369207024574279785 -0.0154319657012820244
-0.153974428772926331 0.128907695412635803 -0.0193699058145284653
0.673756897449493408 0.457284390926361084 0.0127945756539702415
-0.585705876350402832 -0.063662312924861908 -0.0185427367687225342
-0.582028210163116455 0.165136009454727173 -0.00774445198476314545
-0.747035086154937744 0.263063997030258179 0.00629258761182427406
-0.146228864789009094 0.00945576746016740799 -0.00826880428940057755
-0.319325953722000122 -0.086963161826133728 -0.00722042471170425415
-0.229035213589668274 0.0661407560110092163 -0.00241292687132954597
-0.629994451999664307 -0.152418553829193115 -0.00536418287083506584
-0.514011502265930176 -0.11405123770236969 -0.0100281564518809319
0.209834948182106018 0.0130506381392478943 -0.0137714799493551254
-0.6425667405128479 -0.424582719802856445 -0.00629974529147148132
-0.792811572551727295 -0.272217601537704468 0.000416303751990199089
0.326684147119522095 0.21056753396987915 -0.00989861041307449341
-0.793576240539550781 -0.255108863115310669 -0.00367070524953305721
-0.767512857913970947 -0.321130663156509399 0.00708701601251959801
-0.191571757197380066 0.285094887018203735 0.0034280077088624239
-0.782987356185913086 0.431290805339813232 -0.0027261665090918541
-0.777924656867980957 -0.364593595266342163 -0.00722715584561228752
-0.993473529815673828 -0.365403860807418823 0.00684972666203975677
-0.869545936584472656 -0.522520363330841064 -0.00322636635974049568
-0.983082771301269531 -0.124997489154338837 0.00577821070328354836
-0.318174004554748535 -0.0816171839833259583 -0.0114167872816324234
0.465178608894348145 0.179042026400566101 -0.00301900552585721016
-0.468475520610809326 -0.331613153219223022 -0.0068255043588578701
-0.51728588342666626 0.218049183487892151 -0.00761643378064036369
-0.541983366012573242 0.166852384805679321 -0.0021394162904471159
0.263671547174453735 0.150307491421699524 -0.0132409613579511642
0.808407425880432129 0.443494021892547607 0.000696118804626166821
-0.0514889024198055267 -0.00159874465316534042 0.0160636994987726212
-0.584317147731781006 0.45163041353225708 -0.023782556876540184
-0.866934001445770264 -0.267747014760971069 -0.00547337392345070839
-0.87438809871673584 -0.389884918928146362 -0.00686532724648714066
-0.40494614839553833 0.183097109198570251 -0.00681837368756532669
-0.564830958843231201 -0.206170767545700073 -0.00815732870250940323
0.0888901576399803162 -0.0168491005897521973 -0.00841075461357831955
-0.313184618949890137 -0.0390541702508926392 -0.00612255092710256577
-0.6217232346534729 -0.15188974142074585 -0.00436163507401943207
-0.269239574670791626 -0.182753071188926697 -0.00255743390880525112
-0.672350466251373291 -0.284620016813278198 -0.000422786717535927892
0.525102436542510986 0.413190484046936035 0.00288646132685244083
0.393509179353713989 0.464043498039245605 0.00312300375662744045
-0.0235741119831800461 -0.00368841295130550861 0.00163683225400745869
-0.515533387660980225 -0.196968004107475281 -0.0148070221766829491
-0.417850911617279053 0.222543627023696899 0.00138462870381772518
-0.944784462451934814 0.343290805816650391 -0.00578449899330735207
0.988070547580718994 0.444253444671630859 0.00223262212239205837
-0.405445992946624756 0.0272857602685689926 -0.00310904323123395443
-0.545716583728790283 0.366227000951766968 -0.00486005190759897232
0.677998185157775879 0.269064337015151978 -0.00203868048265576363
-0.571092128753662109 -0.16061122715473175 -0.00602565845474600792
-0.0786449164152145386 0.167044281959533691 -0.00180058297701179981
-0.694480359554290771 0.461602479219436646 -0.0137800006195902824
-0.309447169303894043 0.144486799836158752 -0.0159120224416255951
0.436007052659988403 0.436935275793075562 -0.00595166673883795738
-0.753450334072113037 -0.0447616688907146454 -0.0161780621856451035
-0.0734139531850814819 -0.122414961457252502 -0.00205413158982992172
-0.241660177707672119 0.172240510582923889 0.00881195627152919769
-0.312096476554870605 0.231022551655769348 -0.0109405443072319031
-0.859498202800750732 -0.0698718279600143433 -0.00457101501524448395
0.211412489414215088 0.266107887029647827 0.00366118038073182106
0.0830966159701347351 0.197669759392738342 0.00194921845104545355
0.733848869800567627 0.454544007778167725 -0.0107035143300890923
-0.0880762264132499695 0.199419602751731873 0.000380620855139568448
-0.948369860649108887 -0.0451669692993164062 -0.0140167549252510071
0.794198274612426758 0.296261250972747803 -0.00415691221132874489
-0.509243369102478027 0.198891580104827881 -0.0050780000165104866
-0.33815428614616394 -0.232782766222953796 -0.000206691096536815166
-0.66804128885269165 0.445463120937347412 0.000284537178231403232
-0.492075920104980469 -0.234054207801818848 -0.000653064576908946037
-0.613051891326904297 0.424543619155883789 -0.00683111464604735374
0.29455721378326416 0.232013344764709473 0.00609977403655648232
0.433009922504425049 0.321359217166900635 -0.00949193444103002548
-0.331341296434402466 0.100782603025436401 0.00413514208048582077
0.108904801309108734 0.271990984678268433 -0.00540804443880915642
-0.271168977022171021 0.265506088733673096 0.0112768625840544701
0.584781467914581299 0.363728910684585571 -0.00310448394156992435
0.0936031118035316467 0.366324543952941895 0.0125645473599433899
-0.240824759006500244 0.275723248720169067 -0.00608230056241154671
-0.282537132501602173 -0.230103194713592529 -0.0112838111817836761
-0.806931197643280029 -0.339431434869766235 0.0120909856632351875
-0.299528241157531738 0.11592981219291687 -0.00432187831029295921
0.59926140308380127 0.387911438941955566 -0.00242135580629110336
-0.346921801567077637 0.0102296080440282822 -0.0164934229105710983
-0.198006033897399902 0.449632346630096436 0.00498817488551139832
-0.780932307243347168 -0.176736891269683838 -0.0101235518231987953
-0.369568347930908203 0.120208971202373505 0.0124803213402628899
-0.0726971402764320374 0.418869912624359131 -0.00419095391407608986
-0.830981612205505371 0.417658716440200806 -0.00902842357754707336
-0.622426509857177734 0.108988106250762939 -0.00124613591469824314
-0.816807925701141357 0.358809560537338257 0.000489585218019783497
-0.853969812393188477 0.38100820779800415 0.010111798532307148
-0.998569905757904053 -0.537829697132110596 -0.0107735553756356239
-0.256638228893280029 0.0147142065688967705 -0.00850265007466077805
-0.620349526405334473 -0.242691680788993835 0.00802632980048656464
-0.680798828601837158 0.265510082244873047 -0.000969623157288879156
-0.823544859886169434 -0.196297317743301392 0.00181286758743226528
-0.129458487033843994 0.440408289432525635 -0.00497547071427106857
-0.862285077571868896 -0.53600466251373291 -0.0155591610819101334
0.575286388397216797 0.182249531149864197 0.0122633278369903564
-0.491668283939361572 -0.141261205077171326 -0.00449512014165520668
-0.978366732597351074 -0.535545647144317627 -0.0026218043640255928
0.418569594621658325 0.305856883525848389 0.00278413482010364532
-0.642111241817474365 -0.0608619824051856995 0.00115284521598368883
-0.522263765335083008 0.0298576056957244873 0.00745879439637064934
-0.175767570734024048 0.00175921141635626554 0.0158160403370857239
-0.953730404376983643 -0.436212241649627686 -0.00450512487441301346
-0.122211910784244537 0.464350402355194092 0.00596479885280132294
-0.981469273567199707 -0.0998396500945091248 -0.0129253258928656578
0.327551424503326416 0.44012722373008728 -0.0094051845371723175
-0.916101813316345215 -0.234868660569190979 0.00599653366953134537
-0.57283627986907959 -0.210632234811782837 0.0012998146703466773
-0.892775774002075195 -0.263378351926803589 -0.0135695058852434158
-0.131081461906433105 0.407283574342727661 -0.00469970563426613808
0.181988239288330078 0.331585019826889038 -0.00896607711911201477
-0.707588791847229004 -0.202251285314559937 -0.00594363035634160042
-0.739972591400146484 -0.386041313409805298 -0.00802286714315414429
0.182685747742652893 0.174903124570846558 0.00562842376530170441
-0.593053817749023438 -0.347161352634429932 -0.00721292383968830109
0.325312256813049316 0.0667510554194450378 0.000973130809143185616
-0.507339358329772949 0.455269068479537964 -4.82687719340901822e-05
0.232153192162513733 0.209413975477218628 -0.0148834753781557083
-0.725255191326141357 0.299458235502243042 -0.00976707879453897476
-0.830424368381500244 0.331827014684677124 -0.00418421626091003418
0.242879211902618408 0.0342791900038719177 -0.000397966126911342144
-0.991077899932861328 0.17543947696685791 0.00154568476136773825
-0.967244327068328857 -0.231586262583732605 -0.0154405059292912483
-0.9916190505027771 -0.0806006491184234619 -0.00325409509241580963
-0.0632982626557350159 0.169653803110122681 -0.0045067942701280117
-0.19648250937461853 0.173245221376419067 -0.00425811717286705971
0.949971020221710205 0.422941386699676514 -0.0122069213539361954
0.339464932680130005 0.261661022901535034 0.0101548749953508377
0.01210828498005867 0.0862528681755065918 -0.00152260228060185909
-0.880404055118560791 -0.100014939904212952 -0.0243648961186408997
-0.0264066178351640701 0.304785221815109253 -0.00307830469682812691
-0.743766725063323975 0.253719866275787354 0.000135731927002780139
-0.316352277994155884 0.287948548793792725 -0.0176354106515645981
-0.91668093204498291 -0.190628096461296082 -0.00166105187963694334
0.0540784783661365509 0.396770060062408447 -0.000290807191049680114
-0.462788403034210205 0.178910583257675171 0.00110176741145551205
-0.0156163750216364861 0.104339398443698883 0.00161612697411328554
-0.0458094999194145203 0.230781599879264832 0.000455891015008091927
-0.67452239990234375 -0.388616651296615601 -0.015164840966463089
-0.823108494281768799 -0.234271898865699768 -0.0145585043355822563
-0.736327052116394043 -0.0600875355303287506 0.00372008653357625008
-0.916501641273498535 0.332277655601501465 0.00689410651102662086
0.110391706228256226 0.354553133249282837 -0.0120023014023900032
-0.889667749404907227 0.3719443678855896 -0.00744957756251096725
-0.705726325511932373 0.0744294673204421997 0.00900834798812866211
0.613591849803924561 0.343405276536941528 0.00762012973427772522
0.644583642482757568 0.456593781709671021 0.00467799277976155281
-0.872855305671691895 0.059710133820772171 0.00297864130698144436
-0.524100422859191895 0.0520360618829727173 -0.00989993847906589508
-0.602020144462585449 0.0736651569604873657 -0.0106461271643638611
0.509565770626068115 0.403393447399139404 -0.0105258701369166374
0.637908101081848145 0.290993273258209229 0.00136335543356835842
-0.700153887271881104 0.165368169546127319 -0.012654661200940609
-0.902816414833068848 -0.386360466480255127 0.00395152764394879341
-0.462895095348358154 -0.0423958413302898407 -0.0137547971680760384
-0.907731831073760986 -0.517921984195709229 -0.00404059793800115585
0.814500987529754639 0.339179635047912598 -0.00450762594118714333
-0.660634160041809082 -0.0402726270258426666 -0.00653758645057678223
-0.628829717636108398 0.424297958612442017 -0.00963973067700862885
0.18221244215965271 -0.0149141540750861168 -0.00548307131975889206
0.582759499549865723 0.414277434349060059 0.00327609456144273281
-0.867772817611694336 -0.263461858034133911 0.01374826580286026
-0.194192543625831604 0.0913399308919906616 0.0159447845071554184
0.213685795664787292 0.0436795204877853394 -0.00602814508602023125
-0.748588204383850098 0.221011370420455933 0.00317629729397594929
0.152908638119697571 -0.0275573320686817169 0.00694026751443743706
-0.939685642719268799 0.445282220840454102 -0.0121083417907357216
0.0579271093010902405 0.432275384664535522 0.0116019072011113167
0.231964245438575745 0.024359479546546936 -0.0046838885173201561
0.168672770261764526 0.0549490898847579956 -0.0123243490234017372
0.794750809669494629 0.46010926365852356 -0.00697704264894127846
-0.965524196624755859 0.0568142794072628021 -0.00556394085288047791
-0.341588377952575684 0.417582601308822632 0.00485208909958600998
-0.457330822944641113 0.222871214151382446 0.00607910845428705215
-0.796151101589202881 -0.224193170666694641 0.00347808469086885452
-0.733945786952972412 0.278592050075531006 -0.0115925706923007965
-0.301571309566497803 0.317051798105239868 0.00484121218323707581
-0.786517918109893799 -0.460446000099182129 -0.00422326056286692619
-0.960236489772796631 -0.590353786945343018 0.0112520726397633553
-0.723030686378479004 -0.160715952515602112 0.00166271906346082687
0.291340172290802002 0.32855755090713501 -0.0123478425666689873
-0.814986824989318848 -0.504835784435272217 0.00297334766946732998
0.154484406113624573 0.122100822627544403 -0.00898047909140586853
-0.272912323474884033 -0.262143999338150024 0.00443888362497091293
-0.251261204481124878 -0.0155752282589673996 -0.00410994980484247208
-0.707262694835662842 -0.0899387970566749573 -0.00705683883279561996
0.244256943464279175 0.14948822557926178 -0.00180899898987263441
-0.568585872650146484 0.303315252065658569 -0.0102135594934225082
-0.94991767406463623 -0.0717729926109313965 -0.000563579669687896967
-1.00837039947509766 -0.486085027456283569 0.00165496906265616417
-0.256994903087615967 0.37971767783164978 -0.00104729156009852886
-0.562477052211761475 0.113730311393737793 -0.0178914554417133331
-0.508085310459136963 -0.0740552321076393127 -0.00457439292222261429
-0.690792202949523926 -0.304398536682128906 -0.00640627415850758553
-0.898347616195678711 -0.389059007167816162 0.00288225989788770676
-0.57307732105255127 -0.034297209233045578 -0.02397904172539711
-0.398150444030761719 0.00594022497534751892 -0.0022944621741771698
-0.687399566173553467 0.161476179957389832 0.000955916766542941332
-0.634733736515045166 0.438180983066558838 0.00462483754381537437
-0.213536277413368225 -0.110896885395050049 0.00553423399105668068
-0.670078516006469727 -0.35852581262588501 0.00782723911106586456
-0.138590946793556213 0.0479550696909427643 -0.011839328333735466
-0.86595308780670166 0.0422567687928676605 -0.0111734671518206596
0.591039061546325684 0.258490115404129028 -0.0125521328300237656
-0.287597566843032837 0.324981659650802612 -0.00548686645925045013
-0.483977407217025757 -0.035844758152961731 -0.0126727623865008354
0.547842144966125488 0.170330479741096497 0.00410003587603569031
0.455243706703186035 0.107684791088104248 -8.63136665429919958e-05
-0.512174546718597412 0.143109828233718872 -0.00244939071126282215
0.191023766994476318 0.334038138389587402 0.00913620553910732269
0.917494893074035645 0.402584850788116455 -0.00391178997233510017
-0.611658036708831787 0.312720984220504761 0.00409093266353011131
-0.803475916385650635 -0.521833479404449463 -0.00756656425073742867
0.576059281826019287 0.247403547167778015 -0.0102141760289669037
0.271306514739990234 0.388844400644302368 0.000188329722732305527
-0.293511569499969482 -0.139035224914550781 0.00147512229159474373
0.72170180082321167 0.4083576500415802 0.0101731987670063972
-0.923614919185638428 0.333655685186386108 -0.00920185819268226624
-0.595707058906555176 -0.35488206148147583 0.00237187626771628857
-0.322765201330184937 -0.128093034029006958 0.00619790703058242798
-0.83105015754699707 -0.338022083044052124 0.00489490851759910583
-0.664252102375030518 -0.180378571152687073 -0.00265669799409806728
0.534614264965057373 0.337280601263046265 0.00617212476208806038
-0.389045596122741699 -0.173317506909370422 -0.00988743733614683151
-0.679954290390014648 -0.280245482921600342 -0.00807735510170459747
0.664192497730255127 0.217552855610847473 -0.010585498996078968
-0.341389507055282593 -0.1738453209400177 0.000612832081969827414
-0.155213013291358948 0.383196055889129639 0.00649436889216303825
-0.687812864780426025 -0.44758644700050354 -0.00491962675005197525
-0.0459927655756473541 0.167515367269515991 -0.0115039041265845299
-0.905865252017974854 -0.465562134981155396 0.00223141256719827652
0.93622666597366333 0.452505350112915039 0.00441615749150514603
0.255751162767410278 0.387085467576980591 -0.00328694470226764679
-0.618183612823486328 0.384247153997421265 -0.0138252973556518555
0.165087044239044189 0.395047873258590698 -0.0231346599757671356
-0.0273333359509706497 0.148047894239425659 -0.0213734526187181473
0.603782594203948975 0.28562435507774353 -0.00507910968735814095
-0.758266031742095947 -0.477346807718276978 0.00927213858813047409
-0.605672597885131836 -0.359277874231338501 0.00353704392910003662
0.0999567136168479919 0.334642887115478516 -0.0112314783036708832
-0.0379234999418258667 0.288064956665039062 -0.0128491483628749847
0.344516873359680176 0.127996116876602173 -0.0156896468251943588
0.358092725276947021 0.292389720678329468 0.000534219667315483093
-0.102759942412376404 0.396510601043701172 -0.0128971412777900696
-0.751644253730773926 0.383138656616210938 -0.0153070185333490372
0.0850453153252601624 0.0857921987771987915 -0.0202130265533924103
-0.704834640026092529 0.255142480134963989 -0.00382506800815463066
-0.801817774772644043 0.0799714773893356323 -0.0123950410634279251
-0.188663169741630554 -0.0417995192110538483 -0.00125174666754901409
-0.662052392959594727 0.130535691976547241 -0.0123279253020882607
-0.575189948081970215 -0.0069727129302918911 -0.00948974397033452988
0.675023496150970459 0.233071506023406982 -0.0111334118992090225
0.601467728614807129 0.422753304243087769 -0.0130129372701048851
0.161716356873512268 0.355408281087875366 -0.0110414978116750717
0.991575539112091064 0.439287930727005005 -0.00722236698493361473
0.351304590702056885 0.418036311864852905 -0.00358720426447689533
-0.295374959707260132 0.033489130437374115 -3.600285344873555e-05
0.541731059551239014 0.346772581338882446 -0.0146478349342942238
-0.311358243227005005 -0.158536151051521301 -0.000780624803155660629
0.020706523209810257 0.232990264892578125 -0.00655730441212654114
-0.675506532192230225 -0.441332727670669556 0.00323442625813186169
-0.647691249847412109 0.0349523387849330902 0.00444810511544346809
-0.619561612606048584 -0.383310198783874512 -0.0145754832774400711
-0.616209030151367188 -0.244511634111404419 -0.00675867404788732529
0.0993551835417747498 0.012696671299636364 -0.00432478683069348335
-0.833765804767608643 0.311240136623382568 0.00401199143379926682
0.350327968597412109 0.432715535163879395 -0.00956957787275314331
-0.257597446441650391 0.444224447011947632 -0.00414700247347354889
0.0947149023413658142 0.389256983995437622 -0.00303310644812881947
-0.142622366547584534 -0.0168704632669687271 0.00516760628670454025
0.648088455200195312 0.23720841109752655 -0.00285175954923033714
-0.302924901247024536 0.398012727499008179 -0.00448027392849326134
0.645743906497955322 0.345479220151901245 0.0153674958273768425
-0.82537543773651123 0.125913232564926147 -0.00593626359477639198
-0.559804022312164307 -0.124035753309726715 0.0058851572684943676
-0.703126847743988037 0.450624465942382812 -0.00678821606561541557
-0.816105842590332031 0.325964361429214478 -0.00277700298465788364
-0.0761743560433387756 0.00442121457308530807 -0.000207497505471110344
-0.30703812837600708 0.162108421325683594 -0.019192790612578392
-0.352162808179855347 -0.110938660800457001 -0.00984588917344808578
1.00406670570373535 0.419678807258605957 -0.00925614498555660248
0.0953865572810173035 -0.0600889399647712708 0.00402750167995691299
0.088163033127784729 0.378332942724227905 -0.0120984697714447975
-0.72299724817276001 -0.00967304501682519913 -0.00860770698636770248
-0.906435966491699219 0.0465114153921604156 0.000560283369850367308
-0.0131731918081641197 -0.0411038398742675781 0.00658083055168390274
0.476093798875808716 0.311596721410751343 -0.00340564409270882607
-0.400556117296218872 0.281175613403320312 0.00847396720200777054
0.286163628101348877 0.4327431321144104 -0.00850676000118255615
0.838283717632293701 0.35669437050819397 0.00489585055038332939
-0.807565927505493164 -0.170393943786621094 -0.0212367400527000427
-0.981385648250579834 0.143019437789916992 -0.0118940537795424461
0.755536079406738281 0.428979814052581787 -0.00519296061247587204
-0.423328399658203125 0.458374112844467163 -0.00398650532588362694
-0.9902305006980896 -0.322130739688873291 -0.00238479021936655045
-0.105822086334228516 -0.161490589380264282 -0.0104640666395425797
0.146810680627822876 0.372775614261627197 0.0104509908705949783
-0.482569336891174316 -0.365079134702682495 -0.00099595426581799984
-0.63563692569732666 0.166847065091133118 -0.0145069947466254234
-1.00130391120910645 0.322428613901138306 0.0103202871978282928
0.321124523878097534 0.262079030275344849 0.0106673203408718109
0.0552605949342250824 0.255018353462219238 -0.00955056957900524139
-0.864087581634521484 0.350919991731643677 -0.00752483727410435677
0.120107248425483704 0.347320020198822021 0.00965431611984968185
-0.776102304458618164 -0.247593119740486145 0.00592666631564497948
-0.432360172271728516 0.461421400308609009 -0.000770390033721923828
-0.654894053936004639 -0.377602070569992065 -0.0117436973378062248
-0.129860177636146545 0.349501967430114746 0.00957151222974061966
-0.743609964847564697 0.0414337292313575745 -0.0109316064044833183
